# .PCD v0.7 - Point Cloud Data file format
VERSION 0.7
FIELDS x y z rgb normal_x normal_y normal_z curvature
SIZE 4 4 4 4 4 4 4 4
TYPE F F F U F F F F
COUNT 1 1 1 1 1 1 1 1
WIDTH 1014
HEIGHT 1
VIEWPOINT 0 0 0 1 0 0 0
POINTS 1014
DATA ascii
-0.23093581 -0.30860928 1.0070001 9538180 0 0 0 0
-0.22923219 -0.30860928 1.0070001 9406340 0 0 0 0
-0.22752859 -0.30860928 1.0070001 9143168 0 0 0 0
-0.22582497 -0.30860928 1.0070001 9340547 0 0 0 0
-0.22412135 -0.30860928 1.0070001 9340547 0 0 0 0
-0.2190105 -0.30860928 1.0070001 9538178 0 0 0 0
-0.21730688 -0.30860928 1.0070001 9406592 0 0 0 0
-0.21560326 -0.30860928 1.0070001 9473157 0 0 0 0
-0.18929407 -0.30738342 1.003 9143422 0 0 0 0
-0.18571505 -0.30707696 1.0020001 9275008 0 0 0 0
-0.18401989 -0.30707696 1.0020001 9275008 0 0 0 0
-0.18232474 -0.30707696 1.0020001 9538180 0 0 0 0
-0.18062957 -0.30707696 1.0020001 9538180 0 0 0 0
-0.17911299 -0.30738342 1.003 9406594 0 0 0 0
-0.17741613 -0.30738342 1.003 9406594 0 0 0 0
-0.17571928 -0.30738342 1.003 9143422 0 0 0 0
-0.17402242 -0.30738342 1.003 9472387 0 0 0 0
-0.17232557 -0.30738342 1.003 9538180 0 0 0 0
-0.17062873 -0.30738342 1.003 9472387 0 0 0 0
-0.16893187 -0.30738342 1.003 9406340 0 0 0 0
-0.16723502 -0.30738342 1.003 9406340 0 0 0 0
-0.16553818 -0.30738342 1.003 9275524 0 0 0 0
-0.16384132 -0.30738342 1.003 9604489 0 0 0 0
-0.16214448 -0.30738342 1.003 9275526 0 0 0 0
-0.16044763 -0.30738342 1.003 9407112 0 0 0 0
-0.15875077 -0.30738342 1.003 9407112 0 0 0 0
-0.15705393 -0.30738342 1.003 9407112 0 0 0 0
-0.15535708 -0.30738342 1.003 9472903 0 0 0 0
-0.15366022 -0.30738342 1.003 9341317 0 0 0 0
-0.15211488 -0.30768991 1.0040001 8879996 0 0 0 0
-0.15041634 -0.30768991 1.0040001 9471620 0 0 0 0
-0.14871781 -0.30768991 1.0040001 8879483 0 0 0 0
-0.14701927 -0.30768991 1.0040001 9010555 0 0 0 0
-0.14546545 -0.30799633 1.005 9273727 0 0 0 0
-0.14376523 -0.30799633 1.005 9405827 0 0 0 0
-0.14206499 -0.30799633 1.005 9340034 0 0 0 0
-0.14036475 -0.30799633 1.005 9274754 0 0 0 0
-0.13866453 -0.30799633 1.005 9077375 0 0 0 0
-0.13696429 -0.30799633 1.005 9340547 0 0 0 0
-0.13526405 -0.30799633 1.005 9472133 0 0 0 0
-0.13173237 -0.30768991 1.0040001 8880248 0 0 0 0
-0.13003384 -0.30768991 1.0040001 9800835 0 0 0 0
-0.1283353 -0.30768991 1.0040001 9537663 0 0 0 0
-0.12651062 -0.30738342 1.003 9471872 0 0 0 0
-0.12481377 -0.30738342 1.003 9340286 0 0 0 0
-0.12311692 -0.30738342 1.003 9405827 0 0 0 0
-0.12142007 -0.30738342 1.003 9142655 0 0 0 0
-0.11972322 -0.30738342 1.003 9405827 0 0 0 0
-0.1164455 -0.30768991 1.0040001 9537926 0 0 0 0
-0.11474697 -0.30768991 1.0040001 9472133 0 0 0 0
-0.11316101 -0.30799633 1.005 9340801 0 0 0 0
-0.11157169 -0.30830282 1.006 10196110 0 0 0 0
-0.10986976 -0.30830282 1.006 9077627 0 0 0 0
-0.10827536 -0.30860928 1.0070001 8682869 0 0 0 0
-0.10497227 -0.30891573 1.008 9077116 0 0 0 0
-0.10326695 -0.30891573 1.008 9143168 0 0 0 0
-0.10156165 -0.30891573 1.008 9340547 0 0 0 0
-0.099955402 -0.30922222 1.0090001 9604489 0 0 0 0
-0.0982484 -0.30922222 1.0090001 8682617 0 0 0 0
-0.036723435 -0.30860928 1.0070001 9339000 0 0 0 0
-0.035019819 -0.30860928 1.0070001 9208184 0 0 0 0
-0.033316199 -0.30860928 1.0070001 9142391 0 0 0 0
-0.031612583 -0.30860928 1.0070001 9142391 0 0 0 0
-0.029908966 -0.30860928 1.0070001 9010805 0 0 0 0
-0.02820535 -0.30860928 1.0070001 9273977 0 0 0 0
-0.026501732 -0.30860928 1.0070001 8813426 0 0 0 0
-0.024822738 -0.30891573 1.008 8878703 0 0 0 0
-0.023117431 -0.30891573 1.008 9010289 0 0 0 0
-0.021412121 -0.30891573 1.008 9141875 0 0 0 0
-0.019706812 -0.30891573 1.008 8878703 0 0 0 0
0.010923344 -0.30707696 1.0020001 9141623 0 0 0 0
0.012618502 -0.30707696 1.0020001 9470588 0 0 0 0
0.014299374 -0.3067705 1.001 8813428 0 0 0 0
0.015992841 -0.3067705 1.001 9076600 0 0 0 0
0.017668638 -0.30646402 1 8287084 0 0 0 0
0.019360414 -0.30646402 1 9537151 0 0 0 0
0.021052187 -0.30646402 1 8747637 0 0 0 0
0.022743963 -0.30646402 1 9010809 0 0 0 0
0.024435738 -0.30646402 1 9076602 0 0 0 0
0.026127513 -0.30646402 1 8879223 0 0 0 0
0.02779147 -0.30615759 0.99900007 8813428 0 0 0 0
0.029481554 -0.30615759 0.99900007 8813428 0 0 0 0
0.031171637 -0.30615759 0.99900007 8879219 0 0 0 0
0.032861721 -0.30615759 0.99900007 8616047 0 0 0 0
0.034517214 -0.3058511 0.99800003 8681322 0 0 0 0
0.036205608 -0.3058511 0.99800003 8944494 0 0 0 0
0.037893996 -0.3058511 0.99800003 8812908 0 0 0 0
0.03958239 -0.3058511 0.99800003 8418150 0 0 0 0
0.044602826 -0.30554464 0.99700004 8287082 0 0 0 0
0.046289526 -0.30554464 0.99700004 8616047 0 0 0 0
0.047976226 -0.30554464 0.99700004 7431773 0 0 0 0
0.049662925 -0.30554464 0.99700004 7300703 0 0 0 0
0.051349625 -0.30554464 0.99700004 7761254 0 0 0 0
0.063156523 -0.30554464 0.99700004 3683385 0 0 0 0
0.064843215 -0.30554464 0.99700004 3617592 0 0 0 0
0.066529922 -0.30554464 0.99700004 3486776 0 0 0 0
0.068216622 -0.30554464 0.99700004 3618362 0 0 0 0
0.069903322 -0.30554464 0.99700004 3552567 0 0 0 0
0.071590021 -0.30554464 0.99700004 3684153 0 0 0 0
0.073276713 -0.30554464 0.99700004 3815739 0 0 0 0
0.081710219 -0.30554464 0.99700004 6381147 0 0 0 0
0.083396912 -0.30554464 0.99700004 6446679 0 0 0 0
0.085083611 -0.30554464 0.99700004 7170402 0 0 0 0
0.086770318 -0.30554464 0.99700004 7498082 0 0 0 0
0.088457018 -0.30554464 0.99700004 8090219 0 0 0 0
0.090143718 -0.30554464 0.99700004 8089705 0 0 0 0
0.09183041 -0.30554464 0.99700004 8418670 0 0 0 0
0.09351711 -0.30554464 0.99700004 8550256 0 0 0 0
0.095203809 -0.30554464 0.99700004 8550256 0 0 0 0
0.096890517 -0.30554464 0.99700004 8616049 0 0 0 0
0.098577216 -0.30554464 0.99700004 8747635 0 0 0 0
0.10026391 -0.30554464 0.99700004 8550256 0 0 0 0
0.10195061 -0.30554464 0.99700004 8550258 0 0 0 0
0.10363731 -0.30554464 0.99700004 8813430 0 0 0 0
0.10532401 -0.30554464 0.99700004 9011323 0 0 0 0
0.10701071 -0.30554464 0.99700004 8945530 0 0 0 0
0.10869741 -0.30554464 0.99700004 8484979 0 0 0 0
0.11038411 -0.30554464 0.99700004 8484979 0 0 0 0
0.11207081 -0.30554464 0.99700004 8747383 0 0 0 0
0.11375751 -0.30554464 0.99700004 8352625 0 0 0 0
0.11544421 -0.30554464 0.99700004 8550772 0 0 0 0
0.11713091 -0.30554464 0.99700004 8550772 0 0 0 0
0.11881761 -0.30554464 0.99700004 8616565 0 0 0 0
0.1205043 -0.30554464 0.99700004 8550772 0 0 0 0
0.122191 -0.30554464 0.99700004 8419186 0 0 0 0
0.12400195 -0.3058511 0.99800003 8419186 0 0 0 0
0.12569036 -0.3058511 0.99800003 8419186 0 0 0 0
0.12737873 -0.3058511 0.99800003 8550772 0 0 0 0
0.12906712 -0.3058511 0.99800003 8550772 0 0 0 0
0.13075551 -0.3058511 0.99800003 8682358 0 0 0 0
0.1324439 -0.3058511 0.99800003 8748151 0 0 0 0
0.1341323 -0.3058511 0.99800003 8682358 0 0 0 0
0.13582069 -0.3058511 0.99800003 8945530 0 0 0 0
0.13750908 -0.3058511 0.99800003 8748151 0 0 0 0
0.13919747 -0.3058511 0.99800003 8748147 0 0 0 0
0.14088587 -0.3058511 0.99800003 8748147 0 0 0 0
0.14243141 -0.30554464 0.99700004 8419182 0 0 0 0
0.1441181 -0.30554464 0.99700004 8682354 0 0 0 0
0.14580481 -0.30554464 0.99700004 8550768 0 0 0 0
0.1474915 -0.30554464 0.99700004 8221803 0 0 0 0
0.14902857 -0.30523819 0.99600005 8681840 0 0 0 0
0.15071358 -0.30523819 0.99600005 8484977 0 0 0 0
0.15239859 -0.30523819 0.99600005 9011321 0 0 0 0
0.15408359 -0.30523819 0.99600005 9077627 0 0 0 0
0.1557686 -0.30523819 0.99600005 8880248 0 0 0 0
0.15729553 -0.30493173 0.99500006 8419695 0 0 0 0
0.15897885 -0.30493173 0.99500006 8156523 0 0 0 0
0.16082363 -0.30523819 0.99600005 8287596 0 0 0 0
0.16250864 -0.30523819 0.99600005 8484975 0 0 0 0
0.16419365 -0.30523819 0.99600005 8616561 0 0 0 0
0.16587865 -0.30523819 0.99600005 8945526 0 0 0 0
0.16756366 -0.30523819 0.99600005 8747887 0 0 0 0
0.16924867 -0.30523819 0.99600005 8418922 0 0 0 0
0.17093368 -0.30523819 0.99600005 8747887 0 0 0 0
0.17261869 -0.30523819 0.99600005 8682094 0 0 0 0
0.17430368 -0.30523819 0.99600005 8616301 0 0 0 0
0.17598869 -0.30523819 0.99600005 8353129 0 0 0 0
0.1776737 -0.30523819 0.99600005 8550508 0 0 0 0
0.17935872 -0.30523819 0.99600005 8550508 0 0 0 0
0.18104373 -0.30523819 0.99600005 8616815 0 0 0 0
0.19620879 -0.30523819 0.99600005 8419182 0 0 0 0
0.1978938 -0.30523819 0.99600005 8616049 0 0 0 0
0.19957882 -0.30523819 0.99600005 8681842 0 0 0 0
0.20126382 -0.30523819 0.99600005 8616563 0 0 0 0
0.20294882 -0.30523819 0.99600005 8748149 0 0 0 0
0.20463383 -0.30523819 0.99600005 8682354 0 0 0 0
0.20631884 -0.30523819 0.99600005 8287596 0 0 0 0
0.20800385 -0.30523819 0.99600005 8287596 0 0 0 0
0.20947832 -0.30493173 0.99500006 8616301 0 0 0 0
0.21116164 -0.30493173 0.99500006 8550508 0 0 0 0
0.21284495 -0.30493173 0.99500006 8418920 0 0 0 0
0.21452826 -0.30493173 0.99500006 8353127 0 0 0 0
0.21621159 -0.30493173 0.99500006 8549738 0 0 0 0
0.21789491 -0.30493173 0.99500006 8549738 0 0 0 0
0.21957822 -0.30493173 0.99500006 8418668 0 0 0 0
0.22103916 -0.30462524 0.99400002 8352875 0 0 0 0
0.22272079 -0.30462524 0.99400002 8419184 0 0 0 0
0.22440241 -0.30462524 0.99400002 8550770 0 0 0 0
0.22608402 -0.30462524 0.99400002 8551283 0 0 0 0
0.22776565 -0.30462524 0.99400002 8485490 0 0 0 0
0.22944728 -0.30462524 0.99400002 8682867 0 0 0 0
0.23089638 -0.30431879 0.99300003 8880246 0 0 0 0
0.23257631 -0.30431879 0.99300003 9011834 0 0 0 0
0.23425624 -0.30431879 0.99300003 10064522 0 0 0 0
0.23569858 -0.30401233 0.99200004 9406081 0 0 0 0
0.23737682 -0.30401233 0.99200004 8748151 0 0 0 0
0.23905507 -0.30401233 0.99200004 8879737 0 0 0 0
0.24073331 -0.30401233 0.99200004 8550772 0 0 0 0
0.24216719 -0.30370587 0.99100006 8879735 0 0 0 0
0.24384373 -0.30370587 0.99100006 8879735 0 0 0 0
0.24552028 -0.30370587 0.99100006 8682869 0 0 0 0
0.24719682 -0.30370587 0.99100006 8551283 0 0 0 0
0.24887337 -0.30370587 0.99100006 8551283 0 0 0 0
0.25054994 -0.30370587 0.99100006 8551283 0 0 0 0
0.25222647 -0.30370587 0.99100006 8617078 0 0 0 0
0.25390303 -0.30370587 0.99100006 8682871 0 0 0 0
0.25557956 -0.30370587 0.99100006 8353906 0 0 0 0
0.25751573 -0.30401233 0.99200004 8814455 0 0 0 0
0.25919393 -0.30401233 0.99200004 8551283 0 0 0 0
0.26087219 -0.30401233 0.99200004 8617076 0 0 0 0
0.26255041 -0.30401233 0.99200004 8946041 0 0 0 0
0.26422867 -0.30401233 0.99200004 8617076 0 0 0 0
0.26590693 -0.30401233 0.99200004 8617076 0 0 0 0
0.26758516 -0.30401233 0.99200004 9077375 0 0 0 0
0.26926342 -0.30401233 0.99200004 9011582 0 0 0 0
0.27094164 -0.30401233 0.99200004 8485238 0 0 0 0
0.27261987 -0.30401233 0.99200004 8551031 0 0 0 0
0.2742981 -0.30401233 0.99200004 8420469 0 0 0 0
0.27597636 -0.30401233 0.99200004 8091504 0 0 0 0
0.27765459 -0.30401233 0.99200004 8223088 0 0 0 0
0.27933285 -0.30401233 0.99200004 8288881 0 0 0 0
0.28101107 -0.30401233 0.99200004 8617074 0 0 0 0
0.28268933 -0.30401233 0.99200004 8419695 0 0 0 0
0.28436753 -0.30401233 0.99200004 8156523 0 0 0 0
0.28604579 -0.30401233 0.99200004 8156523 0 0 0 0
0.28772405 -0.30401233 0.99200004 8485742 0 0 0 0
0.28940228 -0.30401233 0.99200004 8419949 0 0 0 0
0.29779348 -0.30401233 0.99200004 8485490 0 0 0 0
0.29947171 -0.30401233 0.99200004 8485490 0 0 0 0
0.30114996 -0.30401233 0.99200004 8551283 0 0 0 0
0.30282819 -0.30401233 0.99200004 8353904 0 0 0 0
0.30450645 -0.30401233 0.99200004 8551285 0 0 0 0
0.30587605 -0.30370587 0.99100006 8682871 0 0 0 0
0.30755258 -0.30370587 0.99100006 8090734 0 0 0 0
0.30922914 -0.30370587 0.99100006 8353904 0 0 0 0
0.31090569 -0.30370587 0.99100006 8485490 0 0 0 0
0.31258225 -0.30370587 0.99100006 8485488 0 0 0 0
0.31394166 -0.30339938 0.99000007 8551281 0 0 0 0
0.31561655 -0.30339938 0.99000007 8486512 0 0 0 0
0.31729138 -0.30339938 0.99000007 8486512 0 0 0 0
0.31896624 -0.30339938 0.99000007 8223086 0 0 0 0
0.3206411 -0.30339938 0.99000007 7959914 0 0 0 0
0.32231596 -0.30339938 0.99000007 8157810 0 0 0 0
0.32399082 -0.30339938 0.99000007 8355189 0 0 0 0
0.32533669 -0.30309293 0.98900002 8420982 0 0 0 0
0.32700989 -0.30309293 0.98900002 8420982 0 0 0 0
0.32868302 -0.30309293 0.98900002 8486775 0 0 0 0
0.33035621 -0.30309293 0.98900002 8420982 0 0 0 0
0.33202937 -0.30309293 0.98900002 8486260 0 0 0 0
0.33370253 -0.30309293 0.98900002 8420467 0 0 0 0
0.33503658 -0.30278647 0.98800004 8222316 0 0 0 0
0.33670807 -0.30278647 0.98800004 8222316 0 0 0 0
0.33837953 -0.30278647 0.98800004 8419695 0 0 0 0
0.34005103 -0.30278647 0.98800004 8617074 0 0 0 0
0.34172249 -0.30278647 0.98800004 8814453 0 0 0 0
0.34339395 -0.30278647 0.98800004 8682867 0 0 0 0
0.34506544 -0.30278647 0.98800004 8617074 0 0 0 0
0.34673691 -0.30278647 0.98800004 8485488 0 0 0 0
0.3484084 -0.30278647 0.98800004 8353902 0 0 0 0
0.35007986 -0.30278647 0.98800004 8419695 0 0 0 0
0.35880002 -0.30309293 0.98900002 8552053 0 0 0 0
0.36047316 -0.30309293 0.98900002 8683639 0 0 0 0
0.36251253 -0.30339938 0.99000007 8552053 0 0 0 0
0.36418739 -0.30339938 0.99000007 8683639 0 0 0 0
0.36586225 -0.30339938 0.99000007 8420467 0 0 0 0
0.36753711 -0.30339938 0.99000007 8354674 0 0 0 0
0.368839 -0.30309293 0.98900002 8223088 0 0 0 0
0.4027091 -0.30339938 0.99000007 8026992 0 0 0 0
0.40438399 -0.30339938 0.99000007 8158578 0 0 0 0
0.40564865 -0.30309293 0.98900002 8158578 0 0 0 0
0.40732181 -0.30309293 0.98900002 8223601 0 0 0 0
0.40899497 -0.30309293 0.98900002 8157808 0 0 0 0
0.41025293 -0.30278647 0.98800004 8223601 0 0 0 0
0.41192436 -0.30278647 0.98800004 8223601 0 0 0 0
0.41359586 -0.30278647 0.98800004 8420465 0 0 0 0
0.41526732 -0.30278647 0.98800004 8354672 0 0 0 0
0.41693881 -0.30278647 0.98800004 8420465 0 0 0 0
0.41818658 -0.30248001 0.98700005 8355185 0 0 0 0
0.41985637 -0.30248001 0.98700005 8223599 0 0 0 0
0.4210991 -0.30217353 0.98600006 8092783 0 0 0 0
0.42276716 -0.30217353 0.98600006 8224369 0 0 0 0
0.42443526 -0.30217353 0.98600006 8290164 0 0 0 0
0.4465729 -0.30248001 0.98700005 8157808 0 0 0 0
0.44824266 -0.30248001 0.98700005 8223601 0 0 0 0
0.45036829 -0.30278647 0.98800004 8223601 0 0 0 0
0.45203975 -0.30278647 0.98800004 8223601 0 0 0 0
0.45371121 -0.30278647 0.98800004 8026222 0 0 0 0
0.45538267 -0.30278647 0.98800004 8289394 0 0 0 0
0.45705417 -0.30278647 0.98800004 8289394 0 0 0 0
0.45872566 -0.30278647 0.98800004 8091502 0 0 0 0
0.46039712 -0.30278647 0.98800004 7959916 0 0 0 0
0.46206859 -0.30278647 0.98800004 8288881 0 0 0 0
0.46374005 -0.30278647 0.98800004 8288881 0 0 0 0
0.46541154 -0.30278647 0.98800004 8354674 0 0 0 0
0.46708301 -0.30278647 0.98800004 8354674 0 0 0 0
0.4687545 -0.30278647 0.98800004 8224371 0 0 0 0
0.47042593 -0.30278647 0.98800004 8223601 0 0 0 0
0.47209743 -0.30278647 0.98800004 8026222 0 0 0 0
0.47376889 -0.30278647 0.98800004 8026220 0 0 0 0
0.47544038 -0.30278647 0.98800004 8289392 0 0 0 0
0.47711185 -0.30278647 0.98800004 8223599 0 0 0 0
0.47878331 -0.30278647 0.98800004 8289392 0 0 0 0
0.4804548 -0.30278647 0.98800004 8092783 0 0 0 0
0.48212627 -0.30278647 0.98800004 8092783 0 0 0 0
0.48379776 -0.30278647 0.98800004 8027249 0 0 0 0
0.48546922 -0.30278647 0.98800004 7961456 0 0 0 0
0.48714069 -0.30278647 0.98800004 7961456 0 0 0 0
0.4893069 -0.30309293 0.98900002 8027249 0 0 0 0
0.49098009 -0.30309293 0.98900002 8158578 0 0 0 0
0.49265322 -0.30309293 0.98900002 7895406 0 0 0 0
0.49432641 -0.30309293 0.98900002 8289394 0 0 0 0
0.49599954 -0.30309293 0.98900002 8420980 0 0 0 0
0.49767277 -0.30309293 0.98900002 8289394 0 0 0 0
0.4993459 -0.30309293 0.98900002 8289394 0 0 0 0
0.5015257 -0.30339938 0.99000007 8223601 0 0 0 0
0.50320053 -0.30339938 0.99000007 8223601 0 0 0 0
0.50487542 -0.30339938 0.99000007 8092785 0 0 0 0
0.50603855 -0.30309293 0.98900002 8290164 0 0 0 0
0.50771171 -0.30309293 0.98900002 8224371 0 0 0 0
0.50938487 -0.30309293 0.98900002 8224371 0 0 0 0
0.51157486 -0.30339938 0.99000007 8487543 0 0 0 0
0.5132497 -0.30339938 0.99000007 8158578 0 0 0 0
-0 -0 0 3420449 0 0 0 0
-0 -0 0 3420449 0 0 0 0
-0 -0 0 3420449 0 0 0 0
-0 -0 0 3420449 0 0 0 0
-0 -0 0 3420449 0 0 0 0
-0 -0 0 3420449 0 0 0 0
-0 -0 0 3420449 0 0 0 0
-0 -0 0 3420449 0 0 0 0
-0 -0 0 3420449 0 0 0 0
-0 -0 0 3420449 0 0 0 0
-0 -0 0 3420449 0 0 0 0
-0 -0 0 3420449 0 0 0 0
-0 -0 0 3420449 0 0 0 0
-0 -0 0 3420449 0 0 0 0
-0 -0 0 3420449 0 0 0 0
-0 -0 0 3420449 0 0 0 0
-0 -0 0 3420449 0 0 0 0
-0 -0 0 3420449 0 0 0 0
-0 -0 0 3420449 0 0 0 0
-0 -0 0 3420449 0 0 0 0
-0 -0 0 3420449 0 0 0 0
-0 -0 0 3420449 0 0 0 0
-0 -0 0 3420449 0 0 0 0
-0 -0 0 3420449 0 0 0 0
-0 -0 0 3420449 0 0 0 0
-0 -0 0 3420449 0 0 0 0
-0 -0 0 3420449 0 0 0 0
-0 -0 0 3420449 0 0 0 0
-0 -0 0 3420449 0 0 0 0
-0 -0 0 3420449 0 0 0 0
-0 -0 0 3420449 0 0 0 0
-0 -0 0 3420449 0 0 0 0
-0 -0 0 3420449 0 0 0 0
-0 -0 0 3420449 0 0 0 0
-0 -0 0 3420449 0 0 0 0
-0 -0 0 3420449 0 0 0 0
-0 -0 0 3420449 0 0 0 0
-0 -0 0 3420449 0 0 0 0
-0 -0 0 3420449 0 0 0 0
-0 -0 0 3420449 0 0 0 0
-0 -0 0 3420449 0 0 0 0
-0.46160594 -0.3096486 1.016 6448219 0 0 0 0
-0.46033975 -0.30995339 1.0170001 6579805 0 0 0 0
-0.45861921 -0.30995339 1.0170001 6579805 0 0 0 0
-0.36588454 -0.30721042 1.008 8946813 0 0 0 0
-0.36417925 -0.30721042 1.008 9012606 0 0 0 0
-0.36283353 -0.3075152 1.0090001 9275778 0 0 0 0
-0.36112654 -0.3075152 1.0090001 9077627 0 0 0 0
-0.35941955 -0.3075152 1.0090001 9275006 0 0 0 0
-0.35771254 -0.3075152 1.0090001 9538178 0 0 0 0
-0.35600555 -0.3075152 1.0090001 9538178 0 0 0 0
-0.35429853 -0.3075152 1.0090001 9407364 0 0 0 0
-0.35294098 -0.30781993 1.01 9144192 0 0 0 0
-0.35123226 -0.30781993 1.01 9209985 0 0 0 0
-0.34952357 -0.30781993 1.01 9144192 0 0 0 0
-0.34781489 -0.30781993 1.01 9210244 0 0 0 0
-0.3461062 -0.30781993 1.01 9276037 0 0 0 0
-0.34439749 -0.30781993 1.01 9078658 0 0 0 0
-0.3426888 -0.30781993 1.01 9539209 0 0 0 0
-0.29139534 -0.30599135 1.0040001 9604489 0 0 0 0
-0.28969678 -0.30599135 1.0040001 9407110 0 0 0 0
-0.28601453 -0.30568656 1.003 9472133 0 0 0 0
-0.2843177 -0.30568656 1.003 9472903 0 0 0 0
-0.28290263 -0.30599135 1.0040001 9670282 0 0 0 0
-0.28120407 -0.30599135 1.0040001 9276037 0 0 0 0
-0.27950555 -0.30599135 1.0040001 9276037 0 0 0 0
-0.277807 -0.30599135 1.0040001 9539209 0 0 0 0
-0.27610847 -0.30599135 1.0040001 9539209 0 0 0 0
-0.27440992 -0.30599135 1.0040001 9407623 0 0 0 0
-0.27271137 -0.30599135 1.0040001 9605002 0 0 0 0
-0.27128273 -0.30629608 1.005 9407625 0 0 0 0
-0.26958251 -0.30629608 1.005 9407625 0 0 0 0
-0.26788229 -0.30629608 1.005 9670797 0 0 0 0
-0.26618207 -0.30629608 1.005 9605004 0 0 0 0
-0.26448181 -0.30629608 1.005 9605256 0 0 0 0
-0.26278156 -0.30629608 1.005 9671049 0 0 0 0
-0.26108134 -0.30629608 1.005 9605256 0 0 0 0
-0.2596392 -0.30660087 1.006 9736842 0 0 0 0
-0.25793728 -0.30660087 1.006 9605256 0 0 0 0
-0.25623536 -0.30660087 1.006 9736842 0 0 0 0
-0.25453344 -0.30660087 1.006 10196880 0 0 0 0
-0.25283149 -0.30660087 1.006 10131087 0 0 0 0
-0.25137922 -0.30690566 1.0070001 10065294 0 0 0 0
-0.2496756 -0.30690566 1.0070001 9736329 0 0 0 0
-0.247972 -0.30690566 1.0070001 9275778 0 0 0 0
-0.24626838 -0.30690566 1.0070001 9933708 0 0 0 0
-0.24456476 -0.30690566 1.0070001 9802122 0 0 0 0
-0.24286114 -0.30690566 1.0070001 9603973 0 0 0 0
-0.24115753 -0.30690566 1.0070001 9801352 0 0 0 0
-0.23945391 -0.30690566 1.0070001 9735559 0 0 0 0
-0.23775029 -0.30690566 1.0070001 9735559 0 0 0 0
-0.23604667 -0.30690566 1.0070001 9603973 0 0 0 0
-0.23434307 -0.30690566 1.0070001 9538180 0 0 0 0
-0.23263943 -0.30690566 1.0070001 9603973 0 0 0 0
-0.23093581 -0.30690566 1.0070001 9603973 0 0 0 0
-0.22923219 -0.30690566 1.0070001 9603719 0 0 0 0
-0.22752859 -0.30690566 1.0070001 9143168 0 0 0 0
-0.22582497 -0.30690566 1.0070001 9406340 0 0 0 0
-0.22412135 -0.30690566 1.0070001 9406340 0 0 0 0
-0.22241773 -0.30690566 1.0070001 9538180 0 0 0 0
-0.18929407 -0.30568656 1.003 9341317 0 0 0 0
-0.18759723 -0.30568656 1.003 9012352 0 0 0 0
-0.18590038 -0.30568656 1.003 9209985 0 0 0 0
-0.18420352 -0.30568656 1.003 9341571 0 0 0 0
-0.18250668 -0.30568656 1.003 9275008 0 0 0 0
-0.18080983 -0.30568656 1.003 9143422 0 0 0 0
-0.17911299 -0.30568656 1.003 9077629 0 0 0 0
-0.17741613 -0.30568656 1.003 9340801 0 0 0 0
-0.17571928 -0.30568656 1.003 9275008 0 0 0 0
-0.17402242 -0.30568656 1.003 9406594 0 0 0 0
-0.17232557 -0.30568656 1.003 9603973 0 0 0 0
-0.17062873 -0.30568656 1.003 9472387 0 0 0 0
-0.16893187 -0.30568656 1.003 9406594 0 0 0 0
-0.16723502 -0.30568656 1.003 9472387 0 0 0 0
-0.16553818 -0.30568656 1.003 9078658 0 0 0 0
-0.16384132 -0.30568656 1.003 9605002 0 0 0 0
-0.16214448 -0.30568656 1.003 9210244 0 0 0 0
-0.16044763 -0.30568656 1.003 9341830 0 0 0 0
-0.15875077 -0.30568656 1.003 9276037 0 0 0 0
-0.15705393 -0.30568656 1.003 9276037 0 0 0 0
-0.15535708 -0.30568656 1.003 9472903 0 0 0 0
-0.15381342 -0.30599135 1.0040001 9143938 0 0 0 0
-0.15211488 -0.30599135 1.0040001 9143168 0 0 0 0
-0.15041634 -0.30599135 1.0040001 9274754 0 0 0 0
-0.14871781 -0.30599135 1.0040001 9274754 0 0 0 0
-0.14716569 -0.30629608 1.005 9340034 0 0 0 0
-0.14546545 -0.30629608 1.005 9011069 0 0 0 0
-0.14376523 -0.30629608 1.005 8682104 0 0 0 0
-0.14206499 -0.30629608 1.005 8945276 0 0 0 0
-0.14036475 -0.30629608 1.005 9274754 0 0 0 0
-0.13866453 -0.30629608 1.005 9472133 0 0 0 0
-0.13696429 -0.30629608 1.005 9407110 0 0 0 0
-0.13526405 -0.30629608 1.005 9341317 0 0 0 0
-0.13356382 -0.30629608 1.005 9275008 0 0 0 0
-0.1283353 -0.30599135 1.0040001 9208700 0 0 0 0
-0.12663676 -0.30599135 1.0040001 9208702 0 0 0 0
-0.12493822 -0.30599135 1.0040001 9340288 0 0 0 0
-0.12323967 -0.30599135 1.0040001 9142655 0 0 0 0
-0.12154114 -0.30599135 1.0040001 8747897 0 0 0 0
-0.11984259 -0.30599135 1.0040001 9340036 0 0 0 0
-0.11814404 -0.30599135 1.0040001 9208450 0 0 0 0
-0.11486125 -0.30629608 1.005 9405827 0 0 0 0
-0.11327362 -0.30660087 1.006 9142909 0 0 0 0
-0.11157169 -0.30660087 1.006 9800839 0 0 0 0
-0.10997898 -0.30690566 1.0070001 9142909 0 0 0 0
-0.10827536 -0.30690566 1.0070001 9011323 0 0 0 0
-0.10667757 -0.30721042 1.008 9011323 0 0 0 0
-0.10497227 -0.30721042 1.008 9142909 0 0 0 0
-0.10336941 -0.3075152 1.0090001 9208702 0 0 0 0
-0.10166241 -0.3075152 1.0090001 9471874 0 0 0 0
-0.099955402 -0.3075152 1.0090001 9340547 0 0 0 0
-0.0982484 -0.3075152 1.0090001 8682617 0 0 0 0
-0.096541405 -0.3075152 1.0090001 8945789 0 0 0 0
-0.094834402 -0.3075152 1.0090001 8879737 0 0 0 0
-0.036759902 -0.30721042 1.008 9339000 0 0 0 0
-0.035054594 -0.30721042 1.008 9339770 0 0 0 0
-0.033349283 -0.30721042 1.008 9142391 0 0 0 0
-0.031643976 -0.30721042 1.008 9339770 0 0 0 0
-0.029938664 -0.30721042 1.008 8813426 0 0 0 0
-0.028233357 -0.30721042 1.008 9142391 0 0 0 0
-0.026528047 -0.30721042 1.008 9339770 0 0 0 0
-0.024822738 -0.30721042 1.008 9274231 0 0 0 0
-0.023140365 -0.3075152 1.0090001 9142645 0 0 0 0
-0.021433365 -0.3075152 1.0090001 9470586 0 0 0 0
-0.019726362 -0.3075152 1.0090001 9141621 0 0 0 0
-0.018019361 -0.3075152 1.0090001 9141621 0 0 0 0
-0.016312361 -0.3075152 1.0090001 9339000 0 0 0 0
-0.014605359 -0.3075152 1.0090001 9208184 0 0 0 0
0.010923344 -0.3053818 1.0020001 8746865 0 0 0 0
0.012618502 -0.3053818 1.0020001 8483693 0 0 0 0
0.01431366 -0.3053818 1.0020001 8681842 0 0 0 0
0.016008819 -0.3053818 1.0020001 9010807 0 0 0 0
0.017686307 -0.30507702 1.001 8879221 0 0 0 0
0.019379776 -0.30507702 1.001 9273979 0 0 0 0
0.021052187 -0.30477223 1 8681844 0 0 0 0
0.022743963 -0.30477223 1 9010809 0 0 0 0
0.024435738 -0.30477223 1 8945530 0 0 0 0
0.026127513 -0.30477223 1 8748151 0 0 0 0
0.027819287 -0.30477223 1 8748147 0 0 0 0
0.029481554 -0.30446747 0.99900007 8879733 0 0 0 0
0.031171637 -0.30446747 0.99900007 8550768 0 0 0 0
0.032861721 -0.30446747 0.99900007 8419182 0 0 0 0
0.034551799 -0.30446747 0.99900007 8221543 0 0 0 0
0.036205608 -0.30416268 0.99800003 8616301 0 0 0 0
0.037893996 -0.30416268 0.99800003 8221543 0 0 0 0
0.03958239 -0.30416268 0.99800003 7366234 0 0 0 0
0.041270781 -0.30416268 0.99800003 7629152 0 0 0 0
0.044602826 -0.30385792 0.99700004 7103324 0 0 0 0
0.046289526 -0.30385792 0.99700004 6905945 0 0 0 0
0.047976226 -0.30385792 0.99700004 5656139 0 0 0 0
0.049662925 -0.30385792 0.99700004 4472384 0 0 0 0
0.051349625 -0.30385792 0.99700004 3353903 0 0 0 0
0.053036325 -0.30385792 0.99700004 3092018 0 0 0 0
0.054723024 -0.30385792 0.99700004 2894639 0 0 0 0
0.056409724 -0.30385792 0.99700004 2828849 0 0 0 0
0.05809642 -0.30385792 0.99700004 2894642 0 0 0 0
0.059783123 -0.30385792 0.99700004 3026228 0 0 0 0
0.061469823 -0.30385792 0.99700004 2894642 0 0 0 0
0.063156523 -0.30385792 0.99700004 3026228 0 0 0 0
0.064843215 -0.30385792 0.99700004 3092021 0 0 0 0
0.066529922 -0.30385792 0.99700004 3026228 0 0 0 0
0.068216622 -0.30385792 0.99700004 2960435 0 0 0 0
0.069903322 -0.30385792 0.99700004 2894642 0 0 0 0
0.071590021 -0.30385792 0.99700004 2828849 0 0 0 0
0.073276713 -0.30385792 0.99700004 3026228 0 0 0 0
0.074963413 -0.30385792 0.99700004 3092021 0 0 0 0
0.076727003 -0.30416268 0.99800003 2894642 0 0 0 0
0.078415394 -0.30416268 0.99800003 2894642 0 0 0 0
0.080103777 -0.30416268 0.99800003 3026228 0 0 0 0
0.081792168 -0.30416268 0.99800003 3026228 0 0 0 0
0.083396912 -0.30385792 0.99700004 4013118 0 0 0 0
0.085083611 -0.30385792 0.99700004 5131599 0 0 0 0
0.086770318 -0.30385792 0.99700004 6050897 0 0 0 0
0.088457018 -0.30385792 0.99700004 7103585 0 0 0 0
0.090143718 -0.30385792 0.99700004 6840154 0 0 0 0
0.09183041 -0.30385792 0.99700004 8484979 0 0 0 0
0.09351711 -0.30385792 0.99700004 8287598 0 0 0 0
0.095203809 -0.30385792 0.99700004 8419184 0 0 0 0
0.096890517 -0.30385792 0.99700004 8550256 0 0 0 0
0.098577216 -0.30385792 0.99700004 8352877 0 0 0 0
0.10026391 -0.30385792 0.99700004 8812658 0 0 0 0
0.10195061 -0.30385792 0.99700004 9010807 0 0 0 0
0.10363731 -0.30385792 0.99700004 8813428 0 0 0 0
0.10532401 -0.30385792 0.99700004 8550770 0 0 0 0
0.10701071 -0.30385792 0.99700004 8550770 0 0 0 0
0.10869741 -0.30385792 0.99700004 8419186 0 0 0 0
0.11038411 -0.30385792 0.99700004 8682358 0 0 0 0
0.11207081 -0.30385792 0.99700004 8682356 0 0 0 0
0.11375751 -0.30385792 0.99700004 8682356 0 0 0 0
0.11544421 -0.30385792 0.99700004 8484977 0 0 0 0
0.11713091 -0.30385792 0.99700004 8287598 0 0 0 0
0.11893678 -0.30416268 0.99800003 8484977 0 0 0 0
0.12062517 -0.30416268 0.99800003 8484977 0 0 0 0
0.12231356 -0.30416268 0.99800003 8221805 0 0 0 0
0.12400195 -0.30416268 0.99800003 8484977 0 0 0 0
0.12569036 -0.30416268 0.99800003 8748149 0 0 0 0
0.12737873 -0.30416268 0.99800003 8682356 0 0 0 0
0.12906712 -0.30416268 0.99800003 8682358 0 0 0 0
0.13582069 -0.30416268 0.99800003 8616563 0 0 0 0
0.13750908 -0.30416268 0.99800003 8484977 0 0 0 0
0.13919747 -0.30416268 0.99800003 8550768 0 0 0 0
0.14088587 -0.30416268 0.99800003 8550768 0 0 0 0
0.14257427 -0.30416268 0.99800003 8419182 0 0 0 0
0.1441181 -0.30385792 0.99700004 8616561 0 0 0 0
0.14580481 -0.30385792 0.99700004 8681840 0 0 0 0
0.1474915 -0.30385792 0.99700004 8747633 0 0 0 0
0.14902857 -0.30355316 0.99600005 8616047 0 0 0 0
0.15071358 -0.30355316 0.99600005 8550770 0 0 0 0
0.15239859 -0.30355316 0.99600005 9669251 0 0 0 0
0.15408359 -0.30355316 0.99600005 9209985 0 0 0 0
0.1557686 -0.30355316 0.99600005 8749434 0 0 0 0
0.15745361 -0.30355316 0.99600005 8090732 0 0 0 0
0.15913863 -0.30355316 0.99600005 8156525 0 0 0 0
0.16082363 -0.30355316 0.99600005 8287598 0 0 0 0
0.16250864 -0.30355316 0.99600005 8484977 0 0 0 0
0.16419365 -0.30355316 0.99600005 8681840 0 0 0 0
0.16587865 -0.30355316 0.99600005 8879219 0 0 0 0
0.16756366 -0.30355316 0.99600005 8747887 0 0 0 0
0.16924867 -0.30355316 0.99600005 8879473 0 0 0 0
0.17093368 -0.30355316 0.99600005 8813680 0 0 0 0
0.17261869 -0.30355316 0.99600005 8682094 0 0 0 0
0.17430368 -0.30355316 0.99600005 8550508 0 0 0 0
0.17598869 -0.30355316 0.99600005 8550508 0 0 0 0
0.19620879 -0.30355316 0.99600005 8550770 0 0 0 0
0.1978938 -0.30355316 0.99600005 8616563 0 0 0 0
0.19957882 -0.30355316 0.99600005 8616563 0 0 0 0
0.20126382 -0.30355316 0.99600005 8616563 0 0 0 0
0.20294882 -0.30355316 0.99600005 8682356 0 0 0 0
0.20463383 -0.30355316 0.99600005 8682867 0 0 0 0
0.20631884 -0.30355316 0.99600005 8485488 0 0 0 0
0.20800385 -0.30355316 0.99600005 8222316 0 0 0 0
0.20968886 -0.30355316 0.99600005 8222057 0 0 0 0
0.21116164 -0.30324838 0.99500006 8090471 0 0 0 0
0.21284495 -0.30324838 0.99500006 8156262 0 0 0 0
0.21452826 -0.30324838 0.99500006 8419434 0 0 0 0
0.21621159 -0.30324838 0.99500006 8616299 0 0 0 0
0.21789491 -0.30324838 0.99500006 8353127 0 0 0 0
0.21957822 -0.30324838 0.99500006 8747633 0 0 0 0
0.22126155 -0.30324838 0.99500006 8616047 0 0 0 0
0.22272079 -0.30294359 0.99400002 8287598 0 0 0 0
0.22440241 -0.30294359 0.99400002 8484977 0 0 0 0
0.22608402 -0.30294359 0.99400002 8551283 0 0 0 0
0.22776565 -0.30294359 0.99400002 8617076 0 0 0 0
0.22944728 -0.30294359 0.99400002 8485488 0 0 0 0
0.23089638 -0.30263883 0.99300003 8551281 0 0 0 0
0.23257631 -0.30263883 0.99300003 8879735 0 0 0 0
0.23425624 -0.30263883 0.99300003 9142907 0 0 0 0
0.23569858 -0.30233407 0.99200004 9142907 0 0 0 0
0.23737682 -0.30233407 0.99200004 8945528 0 0 0 0
0.23905507 -0.30233407 0.99200004 8683641 0 0 0 0
0.24073331 -0.30233407 0.99200004 8486262 0 0 0 0
0.24216719 -0.30202928 0.99100006 8486262 0 0 0 0
0.24384373 -0.30202928 0.99100006 8354676 0 0 0 0
0.24552028 -0.30202928 0.99100006 8420467 0 0 0 0
0.24719682 -0.30202928 0.99100006 8552053 0 0 0 0
0.24887337 -0.30202928 0.99100006 8486260 0 0 0 0
0.25054994 -0.30202928 0.99100006 8354674 0 0 0 0
0.25222647 -0.30202928 0.99100006 8551285 0 0 0 0
0.25415924 -0.30233407 0.99200004 8419699 0 0 0 0
0.25583747 -0.30233407 0.99200004 8485492 0 0 0 0
0.25751573 -0.30233407 0.99200004 8880248 0 0 0 0
0.25919393 -0.30233407 0.99200004 8419697 0 0 0 0
0.26087219 -0.30233407 0.99200004 8683639 0 0 0 0
0.26255041 -0.30233407 0.99200004 8881018 0 0 0 0
0.26422867 -0.30233407 0.99200004 8946813 0 0 0 0
0.26590693 -0.30233407 0.99200004 8749434 0 0 0 0
0.26758516 -0.30233407 0.99200004 9012606 0 0 0 0
0.26926342 -0.30233407 0.99200004 8749434 0 0 0 0
0.27094164 -0.30233407 0.99200004 8486008 0 0 0 0
0.27261987 -0.30233407 0.99200004 8288629 0 0 0 0
0.2742981 -0.30233407 0.99200004 8288883 0 0 0 0
0.27597636 -0.30233407 0.99200004 8354676 0 0 0 0
0.27765459 -0.30233407 0.99200004 8486260 0 0 0 0
0.27933285 -0.30233407 0.99200004 8749432 0 0 0 0
0.28101107 -0.30233407 0.99200004 8353902 0 0 0 0
0.28268933 -0.30233407 0.99200004 8551281 0 0 0 0
0.28436753 -0.30233407 0.99200004 9077625 0 0 0 0
0.28604579 -0.30233407 0.99200004 8419695 0 0 0 0
0.28772405 -0.30233407 0.99200004 8551281 0 0 0 0
0.28940228 -0.30233407 0.99200004 8551281 0 0 0 0
0.29108053 -0.30233407 0.99200004 8683121 0 0 0 0
0.29443702 -0.30233407 0.99200004 8485742 0 0 0 0
0.29611525 -0.30233407 0.99200004 8156777 0 0 0 0
0.29779348 -0.30233407 0.99200004 8353902 0 0 0 0
0.29947171 -0.30233407 0.99200004 8222316 0 0 0 0
0.30114996 -0.30233407 0.99200004 8419697 0 0 0 0
0.30282819 -0.30233407 0.99200004 8419697 0 0 0 0
0.30419949 -0.30202928 0.99100006 8682871 0 0 0 0
0.30587605 -0.30202928 0.99100006 8682871 0 0 0 0
0.30755258 -0.30202928 0.99100006 8551285 0 0 0 0
0.30922914 -0.30202928 0.99100006 8814455 0 0 0 0
0.31090569 -0.30202928 0.99100006 8814455 0 0 0 0
0.31258225 -0.30202928 0.99100006 8485488 0 0 0 0
0.31394166 -0.30172452 0.99000007 8353902 0 0 0 0
0.31561655 -0.30172452 0.99000007 8617074 0 0 0 0
0.31729138 -0.30172452 0.99000007 8617074 0 0 0 0
0.31896624 -0.30172452 0.99000007 8486258 0 0 0 0
0.3206411 -0.30172452 0.99000007 7828328 0 0 0 0
0.32231596 -0.30172452 0.99000007 8026224 0 0 0 0
0.32399082 -0.30172452 0.99000007 8486775 0 0 0 0
0.32566568 -0.30172452 0.99000007 8420982 0 0 0 0
0.32734054 -0.30172452 0.99000007 8355189 0 0 0 0
0.32868302 -0.30141973 0.98900002 8223603 0 0 0 0
0.33035621 -0.30141973 0.98900002 7960431 0 0 0 0
0.33202937 -0.30141973 0.98900002 7960429 0 0 0 0
0.33370253 -0.30141973 0.98900002 8355187 0 0 0 0
0.3353757 -0.30141973 0.98900002 8091500 0 0 0 0
0.33704886 -0.30141973 0.98900002 8223086 0 0 0 0
0.33872202 -0.30141973 0.98900002 8353902 0 0 0 0
0.34039518 -0.30141973 0.98900002 8617074 0 0 0 0
0.34206834 -0.30141973 0.98900002 8617074 0 0 0 0
0.34374154 -0.30141973 0.98900002 8419695 0 0 0 0
0.3454147 -0.30141973 0.98900002 8551281 0 0 0 0
0.34708786 -0.30141973 0.98900002 8946039 0 0 0 0
0.34876102 -0.30141973 0.98900002 8419697 0 0 0 0
0.35043418 -0.30141973 0.98900002 8551283 0 0 0 0
0.35210735 -0.30141973 0.98900002 8617076 0 0 0 0
0.35378051 -0.30141973 0.98900002 8682869 0 0 0 0
0.35748795 -0.30172452 0.99000007 8353904 0 0 0 0
0.35916281 -0.30172452 0.99000007 8288881 0 0 0 0
0.36083767 -0.30172452 0.99000007 8486260 0 0 0 0
0.36251253 -0.30172452 0.99000007 8486260 0 0 0 0
0.36418739 -0.30172452 0.99000007 8288881 0 0 0 0
0.36586225 -0.30172452 0.99000007 8486260 0 0 0 0
0.36753711 -0.30172452 0.99000007 8486260 0 0 0 0
0.36921197 -0.30172452 0.99000007 8486260 0 0 0 0
0.37051219 -0.30141973 0.98900002 8486258 0 0 0 0
0.40397549 -0.30141973 0.98900002 8420980 0 0 0 0
0.40564865 -0.30141973 0.98900002 8223601 0 0 0 0
0.40732181 -0.30141973 0.98900002 7894636 0 0 0 0
0.40858144 -0.30111498 0.98800004 8157808 0 0 0 0
0.41025293 -0.30111498 0.98800004 8355187 0 0 0 0
0.41192436 -0.30111498 0.98800004 8618359 0 0 0 0
0.41359586 -0.30111498 0.98800004 8289394 0 0 0 0
0.41526732 -0.30111498 0.98800004 8289392 0 0 0 0
0.41693881 -0.30111498 0.98800004 8157806 0 0 0 0
0.41818658 -0.30081022 0.98700005 8223599 0 0 0 0
0.41943097 -0.30050543 0.98600006 8486771 0 0 0 0
0.4210991 -0.30050543 0.98600006 8290162 0 0 0 0
0.42276716 -0.30050543 0.98600006 8224369 0 0 0 0
0.42443526 -0.30050543 0.98600006 8158578 0 0 0 0
0.42567119 -0.30020067 0.98500007 8224371 0 0 0 0
0.44869679 -0.30111498 0.98800004 8355187 0 0 0 0
0.45036829 -0.30111498 0.98800004 8420980 0 0 0 0
0.45203975 -0.30111498 0.98800004 8289394 0 0 0 0
0.45371121 -0.30111498 0.98800004 8289394 0 0 0 0
0.45538267 -0.30111498 0.98800004 8289394 0 0 0 0
0.45705417 -0.30111498 0.98800004 8420980 0 0 0 0
0.45872566 -0.30111498 0.98800004 8355187 0 0 0 0
0.46039712 -0.30111498 0.98800004 8223601 0 0 0 0
0.46206859 -0.30111498 0.98800004 8486773 0 0 0 0
0.46374005 -0.30111498 0.98800004 8618359 0 0 0 0
0.46541154 -0.30111498 0.98800004 8355187 0 0 0 0
0.46708301 -0.30111498 0.98800004 8355187 0 0 0 0
0.4687545 -0.30111498 0.98800004 8289396 0 0 0 0
0.47042593 -0.30111498 0.98800004 8223603 0 0 0 0
0.47209743 -0.30111498 0.98800004 8157810 0 0 0 0
0.47424841 -0.30141973 0.98900002 8157808 0 0 0 0
0.4759216 -0.30141973 0.98900002 8289394 0 0 0 0
0.47759473 -0.30141973 0.98900002 8223601 0 0 0 0
0.47926793 -0.30141973 0.98900002 8223601 0 0 0 0
0.48094109 -0.30141973 0.98900002 8026992 0 0 0 0
0.48261425 -0.30141973 0.98900002 8158578 0 0 0 0
0.48428741 -0.30141973 0.98900002 8224371 0 0 0 0
0.48596057 -0.30141973 0.98900002 8092785 0 0 0 0
0.48980168 -0.30172452 0.99000007 7698284 0 0 0 0
0.49147654 -0.30172452 0.99000007 7895406 0 0 0 0
0.4931514 -0.30172452 0.99000007 7895406 0 0 0 0
0.49482626 -0.30172452 0.99000007 8026222 0 0 0 0
0.49650109 -0.30172452 0.99000007 8289394 0 0 0 0
0.49817601 -0.30172452 0.99000007 8157808 0 0 0 0
0.49985084 -0.30172452 0.99000007 8223601 0 0 0 0
0.5015257 -0.30172452 0.99000007 8223601 0 0 0 0
0.50320053 -0.30172452 0.99000007 8157808 0 0 0 0
0.50487542 -0.30172452 0.99000007 8355957 0 0 0 0
0.50655025 -0.30172452 0.99000007 8290164 0 0 0 0
0.50822508 -0.30172452 0.99000007 8092785 0 0 0 0
0.50989991 -0.30172452 0.99000007 8026992 0 0 0 0
0.51157486 -0.30172452 0.99000007 8026992 0 0 0 0
0.5132497 -0.30172452 0.99000007 8158578 0 0 0 0
0.51492453 -0.30172452 0.99000007 8290164 0 0 0 0
-0 -0 0 3420449 0 0 0 0
-0 -0 0 3420449 0 0 0 0
-0 -0 0 3420449 0 0 0 0
-0 -0 0 3420449 0 0 0 0
-0 -0 0 3420449 0 0 0 0
-0 -0 0 3420449 0 0 0 0
-0 -0 0 3420449 0 0 0 0
-0 -0 0 3420449 0 0 0 0
-0 -0 0 3420449 0 0 0 0
-0 -0 0 3420449 0 0 0 0
-0 -0 0 3420449 0 0 0 0
-0 -0 0 3420449 0 0 0 0
-0 -0 0 3420449 0 0 0 0
-0 -0 0 3420449 0 0 0 0
-0 -0 0 3420449 0 0 0 0
-0 -0 0 3420449 0 0 0 0
-0 -0 0 3420449 0 0 0 0
-0 -0 0 3420449 0 0 0 0
-0 -0 0 3420449 0 0 0 0
-0 -0 0 3420449 0 0 0 0
-0 -0 0 3420449 0 0 0 0
-0 -0 0 3420449 0 0 0 0
-0 -0 0 3420449 0 0 0 0
-0 -0 0 3420449 0 0 0 0
-0 -0 0 3420449 0 0 0 0
-0 -0 0 3420449 0 0 0 0
-0 -0 0 3420449 0 0 0 0
-0 -0 0 3420449 0 0 0 0
-0 -0 0 3420449 0 0 0 0
-0 -0 0 3420449 0 0 0 0
-0 -0 0 3420449 0 0 0 0
-0 -0 0 3420449 0 0 0 0
-0 -0 0 3420449 0 0 0 0
-0 -0 0 3420449 0 0 0 0
-0 -0 0 3420449 0 0 0 0
-0 -0 0 3420449 0 0 0 0
-0 -0 0 3420449 0 0 0 0
-0 -0 0 3420449 0 0 0 0
-0 -0 0 3420449 0 0 0 0
-0 -0 0 3420449 0 0 0 0
-0 -0 0 3420449 0 0 0 0
-0.46033975 -0.30823287 1.0170001 6382422 0 0 0 0
-0.45861921 -0.30823287 1.0170001 6250836 0 0 0 0
-0.36795455 -0.30580822 1.0090001 9209985 0 0 0 0
-0.36624753 -0.30580822 1.0090001 9275778 0 0 0 0
-0.36454055 -0.30580822 1.0090001 9473155 0 0 0 0
-0.36283353 -0.30580822 1.0090001 9341569 0 0 0 0
-0.36112654 -0.30580822 1.0090001 9407362 0 0 0 0
-0.35941955 -0.30580822 1.0090001 9407362 0 0 0 0
-0.35771254 -0.30580822 1.0090001 9604741 0 0 0 0
-0.35600555 -0.30580822 1.0090001 9736327 0 0 0 0
-0.35464963 -0.30611128 1.01 9407875 0 0 0 0
-0.35294098 -0.30611128 1.01 9342082 0 0 0 0
-0.35123226 -0.30611128 1.01 9144703 0 0 0 0
-0.34952357 -0.30611128 1.01 8947324 0 0 0 0
-0.34781489 -0.30611128 1.01 9144451 0 0 0 0
-0.3461062 -0.30611128 1.01 9276037 0 0 0 0
-0.28969678 -0.3042928 1.0040001 9604489 0 0 0 0
-0.28799826 -0.3042928 1.0040001 9735559 0 0 0 0
-0.28629971 -0.3042928 1.0040001 9406594 0 0 0 0
-0.28460118 -0.3042928 1.0040001 9604489 0 0 0 0
-0.28290263 -0.3042928 1.0040001 9604489 0 0 0 0
-0.28120407 -0.3042928 1.0040001 9407623 0 0 0 0
-0.27950555 -0.3042928 1.0040001 9539209 0 0 0 0
-0.277807 -0.3042928 1.0040001 9341830 0 0 0 0
-0.27638346 -0.30459586 1.005 9539209 0 0 0 0
-0.27468321 -0.30459586 1.005 9078660 0 0 0 0
-0.27298298 -0.30459586 1.005 9407625 0 0 0 0
-0.27128273 -0.30459586 1.005 9341579 0 0 0 0
-0.26958251 -0.30459586 1.005 9538958 0 0 0 0
-0.26814884 -0.30489898 1.006 9670797 0 0 0 0
-0.26644692 -0.30489898 1.006 9736590 0 0 0 0
-0.264745 -0.30489898 1.006 9868174 0 0 0 0
-0.26304305 -0.30489898 1.006 9999760 0 0 0 0
-0.26160094 -0.30520207 1.0070001 9671049 0 0 0 0
-0.25989729 -0.30520207 1.0070001 9605256 0 0 0 0
-0.2581937 -0.30520207 1.0070001 9605256 0 0 0 0
-0.25649008 -0.30520207 1.0070001 10131600 0 0 0 0
-0.25478646 -0.30520207 1.0070001 10065294 0 0 0 0
-0.25308284 -0.30520207 1.0070001 9473157 0 0 0 0
-0.25162885 -0.30550513 1.008 9736842 0 0 0 0
-0.24992353 -0.30550513 1.008 9736842 0 0 0 0
-0.24821822 -0.30550513 1.008 9736842 0 0 0 0
-0.24651292 -0.30550513 1.008 9670282 0 0 0 0
-0.2448076 -0.30550513 1.008 9933454 0 0 0 0
-0.2431023 -0.30550513 1.008 9867661 0 0 0 0
-0.24139699 -0.30550513 1.008 9604489 0 0 0 0
-0.23969167 -0.30550513 1.008 9537926 0 0 0 0
-0.23798637 -0.30550513 1.008 9603719 0 0 0 0
-0.23628107 -0.30550513 1.008 9801352 0 0 0 0
-0.23457576 -0.30550513 1.008 9538180 0 0 0 0
-0.23287043 -0.30550513 1.008 9538180 0 0 0 0
-0.23116513 -0.30550513 1.008 9538180 0 0 0 0
-0.22945982 -0.30550513 1.008 9867661 0 0 0 0
-0.22775452 -0.30550513 1.008 9933454 0 0 0 0
-0.2260492 -0.30550513 1.008 9933454 0 0 0 0
-0.2243439 -0.30550513 1.008 9736075 0 0 0 0
-0.22263859 -0.30550513 1.008 9406594 0 0 0 0
-0.18948281 -0.3042928 1.0040001 9670282 0 0 0 0
-0.18759723 -0.30398971 1.003 9341317 0 0 0 0
-0.18590038 -0.30398971 1.003 9341317 0 0 0 0
-0.18420352 -0.30398971 1.003 9472903 0 0 0 0
-0.18250668 -0.30398971 1.003 9538180 0 0 0 0
-0.18080983 -0.30398971 1.003 9472387 0 0 0 0
-0.17911299 -0.30398971 1.003 9143422 0 0 0 0
-0.17741613 -0.30398971 1.003 9077629 0 0 0 0
-0.17589448 -0.3042928 1.0040001 9275008 0 0 0 0
-0.17419593 -0.3042928 1.0040001 9538180 0 0 0 0
-0.17249739 -0.3042928 1.0040001 9472387 0 0 0 0
-0.17079885 -0.3042928 1.0040001 9603973 0 0 0 0
-0.16893187 -0.30398971 1.003 9538180 0 0 0 0
-0.16723502 -0.30398971 1.003 9340801 0 0 0 0
-0.16553818 -0.30398971 1.003 9342084 0 0 0 0
-0.16384132 -0.30398971 1.003 9605256 0 0 0 0
-0.16214448 -0.30398971 1.003 9671049 0 0 0 0
-0.16044763 -0.30398971 1.003 9605256 0 0 0 0
-0.15875077 -0.30398971 1.003 9275524 0 0 0 0
-0.15551198 -0.3042928 1.0040001 9341317 0 0 0 0
-0.15381342 -0.3042928 1.0040001 9209731 0 0 0 0
-0.15211488 -0.3042928 1.0040001 9143938 0 0 0 0
-0.15041634 -0.3042928 1.0040001 9406340 0 0 0 0
-0.14886592 -0.30459586 1.005 9340547 0 0 0 0
-0.14716569 -0.30459586 1.005 9274754 0 0 0 0
-0.14546545 -0.30459586 1.005 9472133 0 0 0 0
-0.14376523 -0.30459586 1.005 9668999 0 0 0 0
-0.14220636 -0.30489898 1.006 9340034 0 0 0 0
-0.14050443 -0.30489898 1.006 9275524 0 0 0 0
-0.1388025 -0.30489898 1.006 9472903 0 0 0 0
-0.13710058 -0.30489898 1.006 9341317 0 0 0 0
-0.12323967 -0.3042928 1.0040001 9142909 0 0 0 0
-0.12154114 -0.3042928 1.0040001 9471874 0 0 0 0
-0.11826171 -0.30459586 1.005 9471620 0 0 0 0
-0.11656148 -0.30459586 1.005 9077116 0 0 0 0
-0.11497554 -0.30489898 1.006 9011323 0 0 0 0
-0.11327362 -0.30489898 1.006 9011323 0 0 0 0
-0.1116826 -0.30520207 1.0070001 8945530 0 0 0 0
-0.10997898 -0.30520207 1.0070001 9011323 0 0 0 0
-0.10838288 -0.30550513 1.008 9142909 0 0 0 0
-0.10667757 -0.30550513 1.008 9077116 0 0 0 0
-0.10507641 -0.30580822 1.0090001 9077116 0 0 0 0
-0.10336941 -0.30580822 1.0090001 9340288 0 0 0 0
-0.0982484 -0.30580822 1.0090001 9142909 0 0 0 0
-0.096541405 -0.30580822 1.0090001 9011323 0 0 0 0
-0.094834402 -0.30580822 1.0090001 8879737 0 0 0 0
-0.067120865 -0.30398971 1.003 7959148 0 0 0 0
-0.036759902 -0.30550513 1.008 8549484 0 0 0 0
-0.035054594 -0.30550513 1.008 9273207 0 0 0 0
-0.033349283 -0.30550513 1.008 9207414 0 0 0 0
-0.031643976 -0.30550513 1.008 9470586 0 0 0 0
-0.029938664 -0.30550513 1.008 8878449 0 0 0 0
-0.028233357 -0.30550513 1.008 9141621 0 0 0 0
-0.026528047 -0.30550513 1.008 9404793 0 0 0 0
-0.024847364 -0.30580822 1.0090001 9339770 0 0 0 0
-0.023140365 -0.30580822 1.0090001 9208184 0 0 0 0
-0.021433365 -0.30580822 1.0090001 9273207 0 0 0 0
-0.019726362 -0.30580822 1.0090001 8944242 0 0 0 0
-0.018019361 -0.30580822 1.0090001 8944242 0 0 0 0
-0.016312361 -0.30580822 1.0090001 9273207 0 0 0 0
-0.014605359 -0.30580822 1.0090001 9208184 0 0 0 0
0.010934245 -0.30398971 1.003 8746865 0 0 0 0
0.012618502 -0.30368665 1.0020001 8944244 0 0 0 0
0.01431366 -0.30368665 1.0020001 9339002 0 0 0 0
0.016008819 -0.30368665 1.0020001 9404795 0 0 0 0
0.017703976 -0.30368665 1.0020001 9142393 0 0 0 0
0.019399136 -0.30368665 1.0020001 9076600 0 0 0 0
0.021073241 -0.30338356 1.001 8813430 0 0 0 0
0.022766707 -0.30338356 1.001 8879223 0 0 0 0
0.024435738 -0.30308047 1 9077114 0 0 0 0
0.026127513 -0.30308047 1 8484977 0 0 0 0
0.027819287 -0.30308047 1 8550768 0 0 0 0
0.029511062 -0.30308047 1 8287596 0 0 0 0
0.031171637 -0.30277741 0.99900007 8156010 0 0 0 0
0.032861721 -0.30277741 0.99900007 8484975 0 0 0 0
0.034551799 -0.30277741 0.99900007 7695976 0 0 0 0
0.036241885 -0.30277741 0.99900007 7235425 0 0 0 0
0.037931968 -0.30277741 0.99900007 6643034 0 0 0 0
0.03958239 -0.30247432 0.99800003 6314069 0 0 0 0
0.041270781 -0.30247432 0.99800003 5787727 0 0 0 0
0.042959172 -0.30247432 0.99800003 4800832 0 0 0 0
0.044647563 -0.30247432 0.99800003 3486004 0 0 0 0
0.046335954 -0.30247432 0.99800003 3157039 0 0 0 0
0.048024345 -0.30247432 0.99800003 3090994 0 0 0 0
0.04971274 -0.30247432 0.99800003 3091248 0 0 0 0
0.051401127 -0.30247432 0.99800003 3222834 0 0 0 0
0.053089518 -0.30247432 0.99800003 3025971 0 0 0 0
0.054723024 -0.30217123 0.99700004 3354936 0 0 0 0
0.056409724 -0.30217123 0.99700004 3420983 0 0 0 0
0.05809642 -0.30217123 0.99700004 3684155 0 0 0 0
0.059783123 -0.30217123 0.99700004 3947325 0 0 0 0
0.061469823 -0.30217123 0.99700004 4276290 0 0 0 0
0.063156523 -0.30217123 0.99700004 4473669 0 0 0 0
0.064843215 -0.30217123 0.99700004 4868427 0 0 0 0
0.066596657 -0.30247432 0.99800003 4276290 0 0 0 0
0.068285041 -0.30247432 0.99800003 4736841 0 0 0 0
0.069973432 -0.30247432 0.99800003 4802634 0 0 0 0
0.071661822 -0.30247432 0.99800003 4539462 0 0 0 0
0.073350213 -0.30247432 0.99800003 4605255 0 0 0 0
0.075038604 -0.30247432 0.99800003 4407876 0 0 0 0
0.076727003 -0.30247432 0.99800003 4276290 0 0 0 0
0.078415394 -0.30247432 0.99800003 3355188 0 0 0 0
0.080103777 -0.30247432 0.99800003 3486776 0 0 0 0
0.081792168 -0.30247432 0.99800003 3552569 0 0 0 0
0.083480559 -0.30247432 0.99800003 3157814 0 0 0 0
0.08516895 -0.30247432 0.99800003 3092021 0 0 0 0
0.086857349 -0.30247432 0.99800003 3157811 0 0 0 0
0.08854574 -0.30247432 0.99800003 4276292 0 0 0 0
0.090234131 -0.30247432 0.99800003 5854550 0 0 0 0
0.091922522 -0.30247432 0.99800003 7104617 0 0 0 0
0.09351711 -0.30217123 0.99700004 7958633 0 0 0 0
0.095203809 -0.30217123 0.99700004 7827047 0 0 0 0
0.096890517 -0.30217123 0.99700004 8221289 0 0 0 0
0.098577216 -0.30217123 0.99700004 8418668 0 0 0 0
0.10026391 -0.30217123 0.99700004 8417898 0 0 0 0
0.10195061 -0.30217123 0.99700004 8747635 0 0 0 0
0.10363731 -0.30217123 0.99700004 8813428 0 0 0 0
0.10532401 -0.30217123 0.99700004 8616563 0 0 0 0
0.10701071 -0.30217123 0.99700004 8484977 0 0 0 0
0.10869741 -0.30217123 0.99700004 8748149 0 0 0 0
0.11038411 -0.30217123 0.99700004 8616563 0 0 0 0
0.11218321 -0.30247432 0.99800003 8550770 0 0 0 0
0.1138716 -0.30247432 0.99800003 8550770 0 0 0 0
0.11556 -0.30247432 0.99800003 8419184 0 0 0 0
0.11724839 -0.30247432 0.99800003 8419184 0 0 0 0
0.11893678 -0.30247432 0.99800003 8748149 0 0 0 0
0.12062517 -0.30247432 0.99800003 8879735 0 0 0 0
0.12231356 -0.30247432 0.99800003 8419184 0 0 0 0
0.12400195 -0.30247432 0.99800003 8550770 0 0 0 0
0.12569036 -0.30247432 0.99800003 9471874 0 0 0 0
0.12737873 -0.30247432 0.99800003 9011323 0 0 0 0
0.13582069 -0.30247432 0.99800003 8879219 0 0 0 0
0.13750908 -0.30247432 0.99800003 8550254 0 0 0 0
0.13919747 -0.30247432 0.99800003 8550508 0 0 0 0
0.14088587 -0.30247432 0.99800003 8747887 0 0 0 0
0.14257427 -0.30247432 0.99800003 8682094 0 0 0 0
0.1441181 -0.30217123 0.99700004 8813680 0 0 0 0
0.14580481 -0.30217123 0.99700004 8879473 0 0 0 0
0.1474915 -0.30217123 0.99700004 8813680 0 0 0 0
0.14917819 -0.30217123 0.99700004 9011059 0 0 0 0
0.15071358 -0.30186817 0.99600005 8617074 0 0 0 0
0.15239859 -0.30186817 0.99600005 8551281 0 0 0 0
0.15408359 -0.30186817 0.99600005 8353906 0 0 0 0
0.1557686 -0.30186817 0.99600005 8485492 0 0 0 0
0.15745361 -0.30186817 0.99600005 8287600 0 0 0 0
0.15913863 -0.30186817 0.99600005 8287600 0 0 0 0
0.16082363 -0.30186817 0.99600005 8616565 0 0 0 0
0.16250864 -0.30186817 0.99600005 8945530 0 0 0 0
0.16419365 -0.30186817 0.99600005 8747635 0 0 0 0
0.16587865 -0.30186817 0.99600005 8616049 0 0 0 0
0.16756366 -0.30186817 0.99600005 8682094 0 0 0 0
0.16924867 -0.30186817 0.99600005 8747887 0 0 0 0
0.17093368 -0.30186817 0.99600005 8747887 0 0 0 0
0.17261869 -0.30186817 0.99600005 9011059 0 0 0 0
0.1978938 -0.30186817 0.99600005 8748149 0 0 0 0
0.19957882 -0.30186817 0.99600005 8616563 0 0 0 0
0.20126382 -0.30186817 0.99600005 8485490 0 0 0 0
0.20294882 -0.30186817 0.99600005 8419697 0 0 0 0
0.20463383 -0.30186817 0.99600005 8682867 0 0 0 0
0.20631884 -0.30186817 0.99600005 8617074 0 0 0 0
0.20800385 -0.30186817 0.99600005 8419695 0 0 0 0
0.20968886 -0.30186817 0.99600005 8354156 0 0 0 0
0.21137387 -0.30186817 0.99600005 8485742 0 0 0 0
0.21305886 -0.30186817 0.99600005 8287848 0 0 0 0
0.21452826 -0.30156508 0.99500006 8419434 0 0 0 0
0.21621159 -0.30156508 0.99500006 8747887 0 0 0 0
0.21789491 -0.30156508 0.99500006 8353129 0 0 0 0
0.21957822 -0.30156508 0.99500006 8550254 0 0 0 0
0.22126155 -0.30156508 0.99500006 8681840 0 0 0 0
0.22294486 -0.30156508 0.99500006 8419184 0 0 0 0
0.22440241 -0.30126199 0.99400002 8550770 0 0 0 0
0.22608402 -0.30126199 0.99400002 8682869 0 0 0 0
0.22776565 -0.30126199 0.99400002 8485490 0 0 0 0
0.22944728 -0.30126199 0.99400002 8550768 0 0 0 0
0.23089638 -0.3009589 0.99300003 8550768 0 0 0 0
0.23257631 -0.3009589 0.99300003 8748147 0 0 0 0
0.23425624 -0.3009589 0.99300003 8748147 0 0 0 0
0.23569858 -0.30065584 0.99200004 9011321 0 0 0 0
0.23737682 -0.30065584 0.99200004 9011321 0 0 0 0
0.23905507 -0.30065584 0.99200004 8880248 0 0 0 0
0.24073331 -0.30065584 0.99200004 8617076 0 0 0 0
0.24216719 -0.30035275 0.99100006 8552053 0 0 0 0
0.24384373 -0.30035275 0.99100006 8288881 0 0 0 0
