# .PCD v0.7 - Point Cloud Data file format
VERSION 0.7
FIELDS x y z rgb normal_x normal_y normal_z curvature
SIZE 4 4 4 4 4 4 4 4
TYPE F F F U F F F F
COUNT 1 1 1 1 1 1 1 1
WIDTH 600
HEIGHT 1
VIEWPOINT 0 0 0 1 0 0 0
POINTS 600
DATA ascii
-0.12488994 0.22535381 -0.58846694 11711925 0.095163174 -0.039889753 0.99466217 0
-0.11476562 0.22498047 -0.58888674 11777718 0.0079201329 -0.015525752 0.99984807 0
-0.10493946 0.22454834 -0.5892334 11711924 0.080211148 -0.11067422 0.99061465 0
-0.095368214 0.22634652 -0.58981872 11645874 0.074809365 -0.15258382 0.98545504 0
-0.088287354 0.22781372 -0.58984375 11843251 0.17043829 -0.17146337 0.9703356 0
-0.072428383 0.22949219 -0.58984375 11843510 0.014979776 -0.52741075 0.84947842 0
0.16711426 0.22949219 -0.58984375 11253178 -0.60131681 -0.60131681 0.52615225 0
-0.15368652 0.23205566 -0.58007812 3628683 -0.40613848 0 0.91381156 0
-0.14354999 0.23485154 -0.58236927 8422798 0.5954808 -0.065879025 0.80066389 0
-0.13495463 0.23519209 -0.58637851 11252146 0.20813526 -0.090580158 0.9738968 0
-0.12486066 0.23479418 -0.58755898 11712181 0.061278846 -0.14629278 0.98734152 0
-0.11519992 0.23483965 -0.58809537 11712438 0.043545369 -0.18428072 0.98190856 0
-0.1048193 0.23490524 -0.58857727 11712181 0.046285082 -0.10418897 0.99347997 0
-0.094899856 0.23504421 -0.58886719 11777718 0.043106623 -0.13947298 0.98928714 0
-0.085249834 0.23553671 -0.58937174 11909303 0.088637426 -0.14749691 0.98508281 0
-0.074914023 0.23518172 -0.58982253 11843510 -0.012239902 -0.062922396 0.99794334 0
-0.068734974 0.23619667 -0.58984375 11843508 0.27712774 -0.15965715 0.94747555 0
0.16615054 0.23482473 -0.58984375 10661042 -0.2131646 -0.020606929 0.97679901 0
-0.14207241 0.24091448 -0.58328682 8620182 0.55886835 -0.16154116 0.81336993 0
-0.13426378 0.24151611 -0.58582902 11449010 0.20442493 -0.18169174 0.9618724 0
-0.12503488 0.24153645 -0.58691406 11908534 0.017789101 -0.0064511788 0.99982095 0
-0.1151123 0.24153645 -0.58691406 11712439 0.022065172 -0.038218383 0.99902576 0
-0.10466766 0.24188741 -0.58776855 11974584 0.078561671 -0.079858571 0.99370557 0
-0.094752721 0.24196079 -0.58793712 11909048 0.063061491 -0.083446883 0.99451494 0
-0.084922791 0.24229431 -0.58882648 12106170 0.043244347 -0.043694355 0.99810851 0
-0.074901439 0.24203831 -0.58951825 11909560 0.10331895 -0.10490293 0.98910087 0
-0.066092528 0.24242188 -0.58984375 11777975 0.081263356 -0.11712497 0.9897868 0
-0.057136536 0.24414062 -0.58984375 11909306 0.08182653 -0.79558855 0.60028589 0
0.16756184 0.24100749 -0.58984375 7832717 -0.34876284 0.2020759 0.91516656 0
-0.28393555 -0.035583496 -0.57080078 3882035 -0.22559707 0.68753392 0.69021958 0
-0.15696499 -0.031747002 -0.57442802 868720 0.99240124 -0.038421616 0.11689129 0
0.3470459 -0.031234741 -0.57340497 7108468 -0.95506531 -0.19855502 0.22005953 0
-0.16003418 -0.025466919 -0.57519531 1326702 0.95198619 -0.30550459 -0.019730505 0
-0.15855341 -0.02492092 -0.5753864 2641008 0.94895673 0.21693094 0.2289587 0
0.17200927 -0.023034668 -0.57563478 8751752 -0.97899026 -0.2018051 0.02920085 0
0.34737143 -0.028230032 -0.57373047 6976368 -0.86882639 0.4313786 0.24300887 0
-0.16259766 -0.015639495 -0.57622069 5198675 0.83970356 0.53820151 0.072366863 0
-0.15979004 -0.018447876 -0.57861328 7567737 0.81645811 0.53862602 0.20803408 0
0.17208251 -0.016104888 -0.57397461 5790554 -0.99184853 0.12234979 -0.035596285 0
-0.1640625 -0.0067019463 -0.57763672 5725021 0.99500507 -0.094581418 0.03192747 0
0.17224121 -0.0073280334 -0.57617188 8488837 -0.66133702 0.74794197 -0.056711029 0
0.1697998 0.0094985962 -0.57177734 1843505 -0.85381413 -0.51777917 -0.053909767 0
0.17077637 0.0094833374 -0.57080078 2697531 -0.68585825 0.64933324 0.32858002 0
0.16943359 0.012746811 -0.57299805 9542047 -0.97870266 0.16584745 -0.12097827 0
0.17060547 0.011825562 -0.5720703 7764355 -0.94335777 0.023517022 0.33094269 0
0.17272949 0.036300659 -0.57763672 9476511 -0.98597556 -0.16186951 0.040626053 0
0.42143553 0.048742674 -0.57851565 4213065 -0.49959719 -0.73574883 0.45724863 0
0.40934244 0.05871582 -0.578125 4212811 -0.77593607 -0.60793054 0.16835569 0
0.41470578 0.055332243 -0.57520306 4212553 -0.5087353 -0.72155386 0.46962595 0
0.42053223 0.050582886 -0.57714844 4212808 -0.22615167 -0.74797499 0.62401021 0
0.40604073 0.06486021 -0.57526505 4081482 -0.79666471 -0.55807507 0.23211546 0
0.41040039 0.061004639 -0.57080078 4213325 -0.69659382 -0.66080046 0.27946353 0
0.39863726 0.077067979 -0.57559484 3884102 -0.89325041 -0.44699159 0.047982704 0
0.40123931 0.072175525 -0.57510233 3884103 -0.86927891 -0.48497534 0.09567152 0
0.3945204 0.085009769 -0.57504338 4015686 -0.88486922 -0.46114331 0.06597916 0
0.38718826 0.096397988 -0.57527041 4148300 -0.76386803 -0.63328457 0.12432313 0
0.39113364 0.091318764 -0.57539874 4016456 -0.81750411 -0.56813061 0.094417013 0
0.36799505 0.10902757 -0.57496995 4608597 -0.47594273 -0.87107962 0.12123878 0
0.37504309 0.10576315 -0.57480758 4543064 -0.43504319 -0.88970232 0.13844551 0
0.38186163 0.10183877 -0.57455283 4411219 -0.60243839 -0.78447032 0.14722173 0
0.35616049 0.11721293 -0.5749715 4673875 -0.54979914 -0.83479226 -0.029030584 0
0.36322492 0.11221783 -0.57442534 4739411 -0.56881124 -0.81542581 0.10739873 0
0.33637929 0.12846448 -0.57545108 4739409 -0.39870247 -0.90736258 0.13315199 0
0.34474811 0.12416166 -0.57487935 4804947 -0.5084995 -0.85994208 0.043907199 0
0.35078126 0.12047119 -0.57568359 4804691 -0.51866013 -0.85465187 -0.023702536 0
0.31798378 0.13872822 -0.5749324 4672847 -0.53890955 -0.83939785 0.070623934 0
0.32495117 0.13467067 -0.57488334 4607568 -0.48930177 -0.86774468 0.087194711 0
0.33161622 0.130896 -0.57431638 4804688 -0.47615513 -0.87601066 0.076691687 0
0.30723989 0.1472427 -0.57538766 4278859 -0.69042915 -0.68320525 0.23777752 0
0.31291851 0.14230347 -0.57463729 4607054 -0.61037457 -0.78277886 0.12124356 0
0.3035439 0.15176553 -0.57514393 3686724 -0.8638894 -0.44854259 0.22913878 0
-0.15075684 0.16567993 -0.57910156 11516100 0.62137735 -0.011159979 0.78343195 0
-0.15120442 0.21862793 -0.57910156 8427439 0.42419431 -0.30257651 0.85352606 0
-0.15120442 0.22713216 -0.57910156 8822455 -0.11968081 -0.14375031 0.98235041 0
-0.14892578 0.22805175 -0.57910156 10858935 0.22049764 -0.13533323 0.96595323 0
-0.15207031 0.23485839 -0.57859373 6192543 0.025502838 -0.073009126 0.99700516 0
-0.14845677 0.23540296 -0.57894737 11187641 0.32060057 -0.064957216 0.94498456 0
-0.28304037 -0.041585285 -0.56770831 3355695 0.10407859 0.099122457 0.98961729 0
-0.27688259 -0.041005451 -0.56656903 3158058 -0.47294772 0.34656212 0.81007111 0
-0.2827301 -0.037618637 -0.56872559 3553072 -0.11405502 0.31751585 0.94136876 0
-0.27573755 -0.037539832 -0.56658614 3552558 -0.47591275 0.26267329 0.83935088 0
-0.1607666 -0.030075073 -0.56396484 933741 0.87210315 0.44584203 0.20164561 0
-0.15871018 -0.031626776 -0.56554234 999535 0.86774701 0.4170059 0.27040926 0
0.34609038 -0.033764545 -0.56285357 6713453 -0.82821023 0.38048789 0.41145685 0
0.3503418 -0.031150818 -0.56054688 7042417 -0.5595873 0.82090157 0.11394177 0
-0.1608073 -0.028589884 -0.56396484 1130091 0.93899089 0.31575856 0.13635495 0
-0.15966797 -0.026316324 -0.56966144 2181231 0.95196998 0.2555913 0.16860093 0
0.17089844 -0.022458758 -0.5646624 8685444 -0.99127448 0.12039989 -0.053653754 0
0.34869939 -0.028352218 -0.56645066 6976368 -0.82982779 0.36728314 0.42010596 0
0.35074869 -0.028722128 -0.5625 6779503 -0.65623164 0.35786346 0.66429943 0
-0.16204834 -0.015453339 -0.56396484 4935247 0.65913898 0.74980426 -0.057702243 0
0.16931152 -0.011032104 -0.56591797 5789786 -0.8767547 -0.46781832 -0.11156718 0
0.17311145 -0.015648626 -0.5648784 6185567 -0.90211731 0.22395545 0.36882022 0
0.16931152 -0.0091133118 -0.56591797 8620423 -0.97107786 0.22676247 -0.074743375 0
0.17160797 -0.00709939 -0.56439209 8620422 -0.54087299 0.12041339 0.83244038 0
0.17153591 0.01299625 -0.56808811 7699589 -0.86198103 0.030035647 0.50604993 0
0.41337889 0.058929443 -0.56826174 4015176 -0.57846397 -0.79541135 0.18083207 0
0.40727851 0.066895828 -0.56575173 4015689 -0.69438493 -0.62521589 0.35627887 0
0.41143119 0.062477961 -0.56618923 4147531 -0.54934382 -0.64028186 0.53689879 0
0.39859772 0.077264786 -0.56509399 4015432 -0.8980723 -0.39047465 0.202474 0
0.40312102 0.072665468 -0.56306797 3818568 -0.61146289 -0.64725971 0.4551571 0
0.39542776 0.084616736 -0.56452519 4015430 -0.86631006 -0.48482636 0.12020925 0
0.38767654 0.096509099 -0.56474108 4213579 -0.85124218 -0.52449614 0.017041476 0
0.3910675 0.091350555 -0.56494141 4147271 -0.81683302 -0.57665193 0.016009577 0
0.36877441 0.10964966 -0.56933594 4542805 -0.43359312 -0.85041219 0.29798669 0
0.3761985 0.10761192 -0.56600672 4674134 -0.45143315 -0.83395398 0.31737825 0
0.38327685 0.103524 -0.56406057 4410962 -0.70574421 -0.62305522 0.33723482 0
0.35679182 0.11815028 -0.56654799 4673619 -0.43775216 -0.84130114 0.31715202 0
0.36486152 0.1140858 -0.56575817 4674132 -0.46701562 -0.82235569 0.32500383 0
0.37234497 0.11109161 -0.56365967 4542803 -0.4153617 -0.85730487 0.30414292 0
0.33785209 0.12865569 -0.56535262 4673103 -0.48031998 -0.87619823 0.039616991 0
0.3452093 0.12429532 -0.56485265 4804946 -0.49736655 -0.8653909 0.061033979 0
0.35312906 0.12105051 -0.56343585 4804690 -0.32046133 -0.91442913 0.24723251 0
0.31895229 0.13916016 -0.56773156 4606798 -0.50760555 -0.83173513 0.22484072 0
0.3249788 0.13638248 -0.56495982 4607054 -0.5162735 -0.83709025 0.18094631 0
0.33252892 0.13157772 -0.56479114 4673101 -0.49864239 -0.86147457 0.096006751 0
0.30809325 0.14797974 -0.56499022 4476238 -0.7397365 -0.67232066 0.027836291 0
0.3142302 0.14297883 -0.56468666 4607053 -0.56480724 -0.81352055 0.13848123 0
0.32006836 0.14038086 -0.56396484 4409675 -0.4459765 -0.89195299 0.074329413 0
0.30521432 0.15177195 -0.56560957 3752773 -0.85748845 -0.50588006 0.093802489 0
0.39758301 -0.081268311 -0.55289716 7108203 0.51194537 -0.1418771 0.84722066 0
0.40142822 -0.082565308 -0.55529785 7173739 0.51004803 -0.25734273 0.82074702 0
0.3972168 -0.079325356 -0.55240887 7173743 0.48513117 -0.15963396 0.85974687 0
-0.2668457 -0.038482666 -0.55712891 3355437 -0.34842294 0.91994679 0.17972013 0
-0.25048828 -0.037231445 -0.55712891 5461070 0.39447218 0.91814429 -0.03745424 0
-0.24788411 -0.036132812 -0.55289716 4079417 -0.53116763 -0.64513731 0.54923481 0
-0.16064453 -0.031131744 -0.55432129 867948 0.98352355 0.13340877 0.12199858 0
-0.15888323 -0.033364434 -0.55538505 999534 0.69772542 0.69923246 0.15573464 0
0.34689879 -0.034879245 -0.5557642 6713966 -0.76669896 0.12169741 0.63036692 0
0.35438192 -0.032986548 -0.55341166 6977137 0.0013561461 0.23155007 0.97282207 0
-0.16101074 -0.028650919 -0.55273438 1064299 0.77470052 0.51749343 0.36337259 0
-0.15742187 -0.022831727 -0.55517578 4676983 0.99713266 0.053717233 0.053300582 0
0.16909179 -0.023464967 -0.55195314 8751237 -0.93738556 0.34261692 -0.062625706 0
0.1706543 -0.020866394 -0.5559082 8356734 -0.89153004 0.44912234 -0.058849804 0
0.34863281 -0.029586792 -0.5546875 7240053 -0.78727233 -0.59850097 -0.14832036 0
0.3519043 -0.029534912 -0.55371094 6977390 -0.26752111 -0.087352917 0.9595843 0
-0.16203962 -0.014910017 -0.55426896 6448740 0.4310292 0.8616721 0.2678338 0
-0.15836589 -0.017145157 -0.55371094 7764600 0.7714054 0.47825739 0.41976598 0
0.17190988 -0.014751979 -0.55510604 7830392 -0.96345115 0.25519523 -0.08146897 0
0.17199707 -0.0079231262 -0.55712891 8225408 -0.97174895 -0.20066835 -0.1242427 0
0.40414768 0.076783925 -0.55792916 3949895 -0.47003829 -0.40274543 0.78540444 0
0.39638409 0.086041041 -0.55472237 4147015 -0.70998698 -0.59572768 0.37553555 0
0.40206298 0.082238771 -0.55390626 4080966 -0.30505008 -0.78868002 0.53378677 0
0.38752443 0.096759036 -0.55463868 4147786 -0.64901561 -0.7516523 0.11746281 0
0.39254326 0.092426412 -0.55383652 4278858 -0.72277921 -0.54907513 0.41965067 0
0.40161133 0.091369629 -0.55175781 4344393 -0.14002801 0.14002801 0.98019606 0
0.37695312 0.10929362 -0.55794269 4477012 -0.24437362 -0.96834105 0.050962657 0
0.38354492 0.1043396 -0.55834961 4344912 -0.65751362 -0.69839603 -0.2826992 0
0.35719809 0.11786398 -0.55310059 4804436 -0.77521217 -0.52871984 0.34568989 0
0.36501464 0.1131897 -0.55463868 4805205 -0.48158389 -0.86236888 -0.15619461 0
0.37310791 0.11054993 -0.55773926 4608853 -0.69314903 -0.70457435 0.15205102 0
0.33800331 0.12903771 -0.55517578 4673360 -0.48169899 -0.87472212 0.053172931 0
0.34408078 0.12528549 -0.55460876 4673618 -0.49119172 -0.87105125 0.00054971466 0
0.35274833 0.12183489 -0.55622208 4673618 -0.37667707 -0.9134506 -0.1540205 0
0.32574463 0.13724773 -0.55509442 4542030 -0.58387691 -0.80954146 0.061076388 0
0.33298829 0.13200684 -0.55476564 4673359 -0.54222578 -0.83842814 0.055040482 0
0.30810547 0.14819336 -0.55505371 4344394 -0.67899704 -0.73391259 0.018311413 0
0.31496644 0.14374562 -0.55498797 4541773 -0.49086758 -0.86602515 0.095128626 0
0.32087055 0.1407645 -0.55398995 4475984 -0.54921955 -0.83139449 0.084505334 0
0.3054606 0.15126546 -0.55472821 4015430 -0.77739865 -0.62857479 0.023348445 0
0.38757324 -0.080993652 -0.546875 7239788 0.10911678 0 0.99402899 0
0.39074707 -0.081115723 -0.54785156 7239788 0.43448555 0 0.90067881 0
0.38776508 -0.078177318 -0.54701453 7042670 0.2058188 0.081305251 0.97520673 0
0.39111328 -0.07798937 -0.54806858 7042926 0.31434238 0.063786812 0.9471643 0
-0.24649048 -0.04064687 -0.54386395 6118998 0.48041889 0.6904695 0.54078591 0
-0.25488281 -0.038604736 -0.54101562 4342332 0.40530327 0.90044689 0.15787554 0
-0.24623801 -0.03815252 -0.54563212 5987669 0.43225726 0.54493511 0.71847016 0
-0.16248721 -0.032935005 -0.54808408 999018 0.59740025 0.19211099 0.77859241 0
0.35750327 -0.032999676 -0.54915363 6977394 0 0 0 0
-0.16174316 -0.029327393 -0.54980469 1064555 0.75257671 0 0.65850461 0
-0.15705024 -0.022030301 -0.54361981 6057085 0.92237711 0.3862907 -9.6895354e-05 0
0.16893005 -0.024765968 -0.54364014 8619393 -0.96484965 0.2475106 0.088338748 0
0.17021485 -0.021105956 -0.54296875 7830389 -0.94697267 0.31983447 0.030801067 0
-0.16149902 -0.016273499 -0.54882812 8027259 0.52020222 0.85107499 -0.071140714 0
-0.15869141 -0.018795777 -0.546875 8685188 0.90056968 0.43405834 -0.023827918 0
0.16925049 -0.012382507 -0.54150391 6710886 -0.98027456 -0.17908522 -0.083607554 0
0.17118327 -0.018814087 -0.54492188 8028024 -0.8301298 0.54588813 -0.11353714 0
0.16760254 -0.0093002319 -0.54003906 8028539 -0.76171362 -0.63122952 -0.14608766 0
0.3984375 0.088462137 -0.54944956 4212551 -0.46272042 -0.05932644 0.88451684 0
0.40058595 0.086975098 -0.54941404 4212552 -0.344596 -0.47956818 0.80701172 0
0.38629884 0.09855713 -0.54554689 4213835 -0.41254753 -0.90954286 0.050361004 0
0.39439452 0.094755858 -0.54607421 4147786 -0.42326802 -0.80560595 0.41453972 0
0.40039062 0.091522217 -0.54931641 4344651 -0.68357205 -0.66642815 -0.29766226 0
0.36862522 0.10891385 -0.54296875 4674133 -0.61786216 -0.78628123 -0.0028440659 0
0.37556705 0.10362194 -0.54271674 4608085 -0.45249811 -0.84572285 0.28283975 0
0.38235676 0.10078939 -0.54290366 4477012 -0.27352986 -0.90285814 0.33170575 0
0.35725233 0.11740451 -0.54587132 4738900 -0.61328322 -0.78638458 0.074046493 0
0.36358252 0.11325138 -0.54467255 4607828 -0.60441732 -0.78903896 0.10998738 0
0.33898926 0.12912598 -0.54589844 4673360 -0.55079514 -0.82531321 0.1244304 0
0.34508464 0.1257375 -0.54495442 4608338 -0.47547871 -0.85705173 0.1984497 0
0.35277507 0.12165324 -0.54420573 4608339 -0.51338685 -0.83747196 0.18728225 0
0.32627466 0.13709781 -0.5447163 4541776 -0.58242452 -0.81232876 0.030060798 0
0.33427098 0.13227114 -0.54447603 4607568 -0.49370781 -0.85653162 0.15035333 0
0.30870056 0.14875031 -0.5458374 4410442 -0.67794877 -0.71111035 0.18629949 0
0.31454703 0.14492328 -0.54456508 4476236 -0.52141362 -0.84769881 0.097645342 0
0.32125419 0.14089529 -0.54450333 4541774 -0.59313124 -0.80490434 0.018011019 0
0.30660155 0.15154785 -0.54429686 3753026 -0.73483437 -0.64743865 0.20209303 0
-0.25244141 -0.040344238 -0.53173828 5790805 0.63237107 0.64858574 0.42360756 0
-0.25306532 -0.038255479 -0.53496635 4474175 0.31372824 0.77763438 0.54484808 0
-0.24963379 -0.038650513 -0.53723145 5658449 0.81134456 0.40272108 0.4237166 0
-0.15669759 -0.022733901 -0.53428817 5399926 0.94873315 0.31474429 -0.029006563 0
0.16954041 -0.026664734 -0.53692627 8684672 -0.94038111 0.25073433 0.2298166 0
0.17053941 -0.023590986 -0.53397864 8422270 -0.99052125 0.09271355 0.10134975 0
-0.15714519 -0.01763916 -0.53401691 8422271 0.96413416 0.22947691 -0.13336293 0
0.16949463 -0.011513519 -0.53510743 7632499 -0.98629951 -0.13027577 0.1012 0
0.17064209 -0.017491912 -0.53330076 6711907 -0.99488014 0.048441939 0.08869569 0
-0.15664062 -0.006664467 -0.53359377 7040366 0.91944176 0.21779525 0.32740229 0
0.16917202 -0.0076650893 -0.53470284 8159614 -0.94676626 -8.5979969e-05 0.3219218 0
0.38709435 0.098886341 -0.53613281 4411218 -0.37225941 -0.78043354 0.50234085 0
0.39111328 0.09828186 -0.53710938 4279886 0.0027660765 -0.86676311 0.49871251 0
0.36871338 0.10935974 -0.53796387 4607571 -0.57233804 -0.80501944 0.15611792 0
0.37508664 0.10640495 -0.53532165 4542291 -0.46073949 -0.8108173 0.36096328 0
0.38475478 0.10272352 -0.53430992 4542292 -0.24866956 -0.775379 0.58047473 0
0.39038086 0.10180664 -0.53466797 4608085 0 -0.60917687 0.79303443 0
0.35788575 0.11839905 -0.53457034 4607827 -0.56865686 -0.82082218 0.053668175 0
0.36493391 0.11355238 -0.53460222 4542548 -0.56557029 -0.8045634 0.18112957 0
0.37084961 0.11051941 -0.53173828 4542292 -0.54598594 -0.79361916 0.26845476 0
0.34560922 0.12709554 -0.53506863 4608083 -0.50061315 -0.86367238 0.058792539 0
0.35309103 0.12221361 -0.53505009 4477009 -0.60710883 -0.79394484 -0.032718062 0
0.32629395 0.13801676 -0.53474933 4607310 -0.47924474 -0.86437327 0.15226065 0
0.33455035 0.13342839 -0.53487879 4607567 -0.51763785 -0.85408336 0.050917979 0
0.3409017 0.13024902 -0.53271484 4607313 -0.37623584 -0.92552865 0.042933349 0
0.3092041 0.14953613 -0.53735352 4213577 -0.81867504 -0.56648982 0.09412998 0
0.31479692 0.14581673 -0.53472775 4476492 -0.57827199 -0.81160903 0.083019175 0
0.3216095 0.1411438 -0.53451538 4476236 -0.61313498 -0.78532141 0.085648946 0
0.3083753 0.15173982 -0.53471935 4080964 -0.79836887 -0.59310299 0.10409611 0
0.35902235 -0.051822238 -0.52251518 4279626 -0.30079299 -0.16733447 0.93889439 0
0.36195883 -0.05317815 -0.5213623 4871507 -0.68742669 -0.27512521 0.67212403 0
-0.25452599 -0.041118916 -0.52858323 5790804 -0.10713152 0.59222502 0.79861909 0
0.35864258 -0.048316956 -0.52075195 4345423 -0.2661005 -0.83857083 0.47538361 0
0.36230469 -0.049096681 -0.52041018 4344911 -0.30441076 -0.62156314 0.72179866 0
-0.25634766 -0.039001465 -0.52978516 3289901 -0.54517359 0.79231739 0.27389592 0
0.36745384 -0.034981467 -0.5218839 6320749 0.14816767 0.55838633 0.81624198 0
0.37355608 -0.0341544 -0.52214009 6452079 -0.27635759 0.38000786 0.88273466 0
-0.15671609 -0.02246926 -0.52436966 6845822 0.90707362 0.42093599 0.0055151549 0
0.17070007 -0.022569656 -0.52612305 8159355 -0.92681104 0.37397751 -0.034089953 0
-0.16125488 -0.013489532 -0.52294922 4276802 0.26592302 0.53769022 0.80010885 0
-0.15797642 -0.016041348 -0.52406532 6974827 0.95124108 0.20729937 0.22840182 0
0.17228107 -0.015423989 -0.52510166 6449251 -0.93843943 0.049403548 0.34189302 0
-0.1563895 -0.0057868958 -0.52141464 7895417 0.99528772 -0.093920022 0.024112977 0
0.17197447 -0.0067611975 -0.52468532 7830649 -0.89036506 0.22140975 0.39777854 0
-0.094299316 0.019180298 -0.52001953 12105655 -0.60006279 -0.59226978 0.53771859 0
-0.094299316 0.022705078 -0.52001953 12237241 -0.44726133 0.44145274 0.77786684 0
0.37692383 0.10849121 -0.52818358 4542292 -0.34139389 -0.75469536 0.56025445 0
0.38294923 0.10735352 -0.52798826 4476755 -0.03136107 -0.73614556 0.67609632 0
0.35793889 0.11910113 -0.52576399 4345425 -0.5077368 -0.85829186 0.074420854 0
0.36479405 0.11529105 -0.52505928 4411220 -0.45597342 -0.8803972 0.13034233 0
0.37402344 0.11245292 -0.52414501 4345686 -0.1095444 -0.81272483 0.57225728 0
0.38131714 0.11144257 -0.52429199 4279637 -0.14608543 -0.67234373 0.72568101 0
0.34638673 0.12740967 -0.52533203 4673616 -0.55641925 -0.82356352 0.11018512 0
0.35331216 0.12246704 -0.5245536 4542289 -0.57831764 -0.81010658 0.096311957 0
0.32718211 0.13820043 -0.52436358 4410701 -0.51084542 -0.85242271 0.11141128 0
0.33489582 0.13382772 -0.52444661 4542032 -0.45013335 -0.87693983 0.16839391 0
0.34128419 0.1305542 -0.52451169 4673104 -0.42343542 -0.89744878 0.12364499 0
0.3148542 0.14625549 -0.52516395 4541517 -0.59444296 -0.80409533 0.0082613742 0
0.32254884 0.14126465 -0.52458984 4476236 -0.5238117 -0.85084409 0.041055702 0
0.30885145 0.15148926 -0.52463108 4015429 -0.79993981 -0.59930611 0.030470325 0
0.31030273 0.1505127 -0.52001953 4739149 -0.82950693 -0.55832195 0.013958049 0
0.36581421 -0.05353982 -0.51501465 5134935 -0.70999026 -0.15056245 0.68792784 0
0.35644531 -0.043893814 -0.51293945 4477523 -0.44994906 -0.45925891 0.76591581 0
0.36241567 -0.045315828 -0.51606888 4674645 0.030725155 0.44292602 0.8960315 0
0.17114258 -0.030700684 -0.51074219 2182261 0 0 0 0
0.29846191 -0.031734467 -0.51135254 6121058 -0.48540831 0.10150329 0.86837542 0
0.30029297 -0.031840008 -0.51074219 6055777 -0.63864541 0.10279327 0.76260448 0
0.36560997 -0.038576566 -0.51772839 6320749 0.16821828 0.6267181 0.76087254 0
0.37060547 -0.038208008 -0.51855469 6386541 0 0.92033094 0.39114067 0
-0.15569051 -0.022759756 -0.51367188 5793911 0.8189401 0.57306588 -0.030539745 0
0.16860199 -0.025418282 -0.51324463 7830653 -0.90942436 0.32900691 0.25436562 0
0.17071533 -0.021461487 -0.51497394 7699060 -0.82323688 0.56768519 -0.003828567 0
0.29888916 -0.028619766 -0.51220703 6779760 -0.55130327 0.28631121 0.78363931 0
0.30084229 -0.028419495 -0.51123047 6648175 -0.45578974 0.42877108 0.78000712 0
-0.1607666 -0.015960693 -0.51855469 6250586 0.74992388 0.64853454 -0.13044946 0
-0.15822056 -0.017022269 -0.515625 7172203 0.92923051 0.3601813 0.082462765 0
0.17203777 -0.011458079 -0.51774091 7501173 -0.96278387 -0.15019141 0.22469912 0
-0.15674767 -0.0066661835 -0.51675183 7829880 0.88632447 -0.36393708 0.2863192 0
0.17220052 -0.0081176758 -0.5159505 8159616 -0.87883794 0.4742004 -0.052705061 0
-0.09071859 0.009366353 -0.51692706 12303034 -0.12565014 0.67976761 0.72258425 0
-0.088348389 0.0091495514 -0.515625 12237241 -0.49194637 0.49815226 0.71402597 0
-0.09148407 0.0151968 -0.51843262 12237241 -0.25319052 0.14978668 0.95575029 0
-0.088745117 0.011311849 -0.51692706 12237241 -0.63180304 0.12596408 0.76482546 0
-0.09221857 0.021383112 -0.51855469 12105655 -0.085830323 0.021396851 0.99607992 0
-0.089416504 0.020324707 -0.51855469 11974069 0 0 0 0
-0.091491699 0.059173584 -0.51074219 10723232 -0.60604322 0 0.79543173 0
-0.091491699 0.060333252 -0.51074219 10394520 -0.60604322 0 0.79543173 0
0.35843599 0.11889648 -0.51472354 4410704 -0.50165427 -0.86497349 -0.01279795 0
0.36442348 0.11654663 -0.51569474 4476497 -0.26397678 -0.95800233 0.11201704 0
0.34693959 0.12774462 -0.51486897 4476751 -0.55497164 -0.83185935 -0.0040681646 0
0.35343191 0.12271728 -0.51459265 4410959 -0.63312972 -0.7739808 -0.010021697 0
0.32809448 0.13891602 -0.51501465 4410961 -0.5649094 -0.82415253 0.04062083 0
0.33483243 0.13427092 -0.51434004 4541775 -0.50288653 -0.86343688 -0.039773319 0
0.3416504 0.13070475 -0.51490885 4607567 -0.43394181 -0.89978194 0.045683701 0
-0.060394287 0.14099121 -0.51074219 9210763 -0.49127856 0.45443267 0.7430588 0
0.31501296 0.14650331 -0.51448005 4607309 -0.54603404 -0.82658952 0.13636929 0
0.32335246 0.14186934 -0.51483744 4475982 -0.48157287 -0.86652786 0.13121386 0
0.30910239 0.15175374 -0.51464844 4080449 -0.79849309 -0.59908062 0.059254885 0
0.31022134 0.15039062 -0.51269531 4278086 -0.75196826 -0.65274614 0.092011862 0
-0.014450921 -0.10098606 -0.50694442 12698044 -0.039628092 -0.40613288 0.91295439 0
-0.0054547312 -0.10101929 -0.50717771 12894653 -0.013189266 -0.34225243 0.93951547 0
0.0020010471 -0.10066732 -0.50716144 12829117 0.056719128 -0.29034546 0.95523953 0
-0.02289666 -0.094122991 -0.50265843 11510431 0.15551248 -0.48722407 0.85931867 0
-0.015700109 -0.095878862 -0.50392306 9994365 -0.023991095 -0.55947793 0.82849801 0
-0.0050194212 -0.096184626 -0.50377601 8674907 0.012349961 -0.66059965 0.75063682 0
0.0050506406 -0.094997033 -0.50390625 10388867 0.086913742 -0.56688458 0.81919956 0
0.012484959 -0.091591969 -0.50279015 12037293 0.089086004 -0.55316955 0.82829165 0
-0.043395996 -0.082061768 -0.50048828 12697790 -0.63906741 -0.15272982 0.75383449 0
0.0091323853 -0.08996582 -0.50048828 7950411 0.2963751 -0.60525382 0.73880285 0
0.014551545 -0.088366702 -0.50048828 10982291 0.059172262 -0.45588464 0.88806975 0
-0.050216675 -0.073638916 -0.5012207 12763585 -0.69428796 -0.44170129 0.56821144 0
-0.046350814 -0.077184342 -0.50100529 12697791 -0.41337144 -0.27523383 0.86796916 0
0.29386392 -0.04083252 -0.5078125 4212805 -0.17354017 -0.1461391 0.97392356 0
0.29348415 -0.038486056 -0.50716144 4476236 -0.29519111 -0.28166017 0.91297853 0
0.30108643 -0.03155899 -0.50854492 6779756 -0.85550374 0.3443383 0.38670975 0
-0.15550944 -0.023353068 -0.50488281 5596531 0.93917823 0.34342912 0.00083127874 0
0.16936035 -0.026182557 -0.5060547 7108479 -0.99551374 -0.0036841019 0.094545171 0
0.17023383 -0.022355821 -0.50461155 7107700 -0.98875314 0.13969022 0.053420495 0
0.30159506 -0.029444376 -0.50911456 7042162 -0.85118818 0.38624403 0.35537899 0
-0.1567034 -0.01790401 -0.50285995 7697776 0.97151792 0.21842621 -0.091886036 0
0.16951497 -0.014010112 -0.50472003 6382691 -0.68440837 -0.72289449 -0.094914079 0
0.17079671 -0.018664042 -0.50227863 5922392 -0.94838214 0.30998838 0.066922709 0
-0.15643311 -0.0070333481 -0.50830078 6974826 0.98160774 0.073519878 -0.17618462 0
0.17077637 -0.0076065063 -0.5078125 7961980 -0.95238346 0.23848811 -0.18997167 0
0.16239421 0.0094604492 -0.50146484 5592666 -0.45780048 0 0.88905489 0
0.15881348 0.016683307 -0.50502235 10265514 0 0 1 0
0.16172896 0.015333131 -0.50262308 7045779 -0.73171628 0.033709168 0.68077523 0
-0.085510254 0.020828247 -0.50292969 12105138 0 0 0 0
0.15974426 0.024841309 -0.50378418 9410986 -0.59432572 -0.0041106553 0.80421394 0
0.16173096 0.024993388 -0.50224608 4544365 -0.74283624 -0.016580898 0.66926783 0
0.15902099 0.035316467 -0.50576174 8818331 -0.5960868 -0.15156861 0.78848433 0
0.1619124 0.03516908 -0.50300735 5064537 -0.73848498 0.0014802231 0.67426825 0
0.15890066 0.041386195 -0.50474328 6450552 -0.57166183 -0.0040867678 0.82047915 0
0.16191407 0.042352296 -0.50185549 4348530 -0.63360614 -0.21284913 0.74380004 0
-0.090209961 0.058502197 -0.50976562 10591646 -0.15531129 0 0.98786563 0
-0.087626137 0.058705647 -0.50830078 10328474 -0.50867856 -0.047267955 0.859658 0
-0.090209961 0.060791016 -0.50976562 10328727 -0.10034773 0 0.99495244 0
-0.087854005 0.060711671 -0.50820315 10394520 -0.64232534 -0.13719487 0.75405276 0
0.35834098 0.11923038 -0.50560087 4541776 -0.42101747 -0.89661217 0.13722612 0
0.36379457 0.11698092 -0.50478268 4476240 -0.31709182 -0.80666512 0.49874255 0
0.34690404 0.12744801 -0.5050016 4476493 -0.63739443 -0.77049077 -0.0085062431 0
0.3536438 0.12218018 -0.50480956 4476239 -0.56208605 -0.82674289 0.023567481 0
0.36425781 0.12062582 -0.50097656 4475984 0.29835269 -0.40346348 0.86498725 0
-0.060272217 0.13781738 -0.50976562 9079432 -0.60870922 0.04810128 0.79193389 0
-0.056494139 0.13735351 -0.50622559 8223353 -0.71934694 0.28601292 0.63303751 0
0.32750976 0.13819335 -0.50490236 4476498 -0.6188581 -0.78171629 -0.077034302 0
0.33504972 0.13402766 -0.50545985 4541774 -0.41534483 -0.90963328 0.0074804188 0
0.34211731 0.13079834 -0.50570679 4345164 -0.44094437 -0.89753145 0.0023077268 0
-0.053363036 0.14324544 -0.50491536 8881796 -0.60329717 0.32384676 0.72880435 0
-0.047494508 0.14712524 -0.5022949 8025971 -0.59785503 0.35786662 0.71728712 0
0.31606445 0.1475586 -0.50524682 4541516 -0.54266763 -0.82094455 0.17765658 0
0.32240698 0.14268093 -0.5044331 4475981 -0.67993903 -0.72582197 0.10423788 0
-0.044993084 0.15059407 -0.50179034 9210244 -0.57101274 0.30100867 0.76376581 0
0.30905762 0.15239258 -0.5055176 3753026 -0.47764468 -0.86165768 0.17146905 0
0.31113011 0.15119086 -0.50431317 4213064 -0.65338391 -0.74228644 0.14866221 0
-0.024428232 0.16635568 -0.5031215 5588036 -0.14515164 0.59523362 0.79033405 0
-0.016545773 0.16811371 -0.50216675 4862773 -0.30156296 0.66963875 0.67870736 0
-0.0078125 0.1697998 -0.50048828 4731442 -0.12687093 0.6725679 0.72907901 0
-0.02217974 0.17124721 -0.50641739 7169123 -0.011677001 0.56071067 0.8279295 0
-0.015416281 0.17224558 -0.50516182 5192509 -0.29671827 0.52707458 0.79633582 0
-0.005502203 0.17246942 -0.50242019 4797747 -0.11238004 0.5883103 0.80078816 0
0.0040473938 0.17102051 -0.50048828 5520698 0.39819887 0.40856865 0.82128519 0
-0.026397705 -0.090881348 -0.49975586 11642017 0.12141494 -0.33936644 0.93278557 0
-0.013360765 -0.091057673 -0.49932182 8081994 -0.12983471 -0.67433208 0.72692442 0
-0.0049699941 -0.091288246 -0.49883354 8278346 0.016143395 -0.70940757 0.70461351 0
0.0020092963 -0.091040038 -0.49936524 8409676 0.17515752 -0.71386647 0.67802244 0
-0.041870117 -0.081825256 -0.49938965 12698048 -0.37624383 -0.10494227 0.92055839 0
-0.034844667 -0.083361819 -0.49770507 11115418 -0.27445602 -0.24882299 0.92884934 0
-0.025017107 -0.085129432 -0.49597684 8213841 -0.12653333 -0.5964576 0.79260814 0
-0.015228399 -0.085642494 -0.49457195 8015174 -0.13454908 -0.67821461 0.72244138 0
-0.0050858487 -0.086373836 -0.49398479 7883331 -0.0033973884 -0.69615453 0.71788394 0
0.0053106588 -0.08556813 -0.49486464 8409673 0.23699902 -0.70589358 0.66749203 0
0.015103554 -0.083750196 -0.49729949 9004127 0.30429617 -0.58796334 0.74946845 0
0.022377601 -0.081890397 -0.4987793 12169393 0.13011116 -0.35843426 0.9244436 0
-0.044196911 -0.073895939 -0.49793294 11247776 -0.37734541 -0.46346825 0.80175281 0
-0.03564132 -0.075751051 -0.49412778 8082256 -0.4577789 -0.50732559 0.73010904 0
-0.027259827 -0.078684486 -0.49149576 7883075 -0.30439675 -0.61259806 0.72942871 0
0.016543513 -0.077957816 -0.49263331 8212809 0.40555871 -0.66542637 0.62668163 0
0.025051823 -0.074860752 -0.49467412 9335149 0.31616247 -0.56963956 0.75865138 0
0.031457521 -0.071704105 -0.49487305 12695481 0.17902173 -0.44005671 0.87994391 0
-0.051731654 -0.063970655 -0.49416387 12235954 -0.13064007 -0.30804554 0.94235933 0
-0.0457347 -0.066040039 -0.493211 8675936 -0.35775962 -0.52894217 0.76956367 0
-0.038859051 -0.069010414 -0.49104819 7488063 -0.51869279 -0.52343184 0.6760006 0
0.028366089 -0.068804063 -0.49145508 8083281 0.44323695 -0.61159921 0.65535289 0
0.034699481 -0.06521076 -0.49254841 10522768 0.34222376 -0.37935033 0.8596372 0
0.27506509 -0.061309814 -0.49454752 6647657 -0.93484741 -0.14201148 0.32541221 0
-0.055113792 -0.056916237 -0.49121094 11049627 -0.14063509 -0.23651108 0.96139705 0
-0.049163818 -0.059387207 -0.49072266 8608856 -0.3928301 -0.49649361 0.77406627 0
0.038567439 -0.058220759 -0.49129233 8612202 0.52299696 -0.39251754 0.75657398 0
0.042916261 -0.054073486 -0.49157226 11708584 0.35980186 -0.3347272 0.87091923 0
0.27375489 -0.058932494 -0.49260253 6647399 -0.49603805 -0.65345168 0.57179302 0
-0.064656578 -0.041631062 -0.49137369 11577513 -0.12239293 -0.082185701 0.98907304 0
0.047369383 -0.047653198 -0.49082032 12959421 0.33800247 -0.37213108 0.86444938 0
0.050476074 -0.04498291 -0.49072266 12828861 0 -0.63431662 0.77307338 0
-0.065332033 -0.039233398 -0.49072266 11707814 -0.1080211 -0.56604356 0.81726742 0
0.05267334 -0.038894653 -0.49072266 12894401 0.54931319 -0.11835826 0.82719189 0
-0.15556066 -0.023443783 -0.49516028 6188151 0.95546174 0.29497728 0.0090190694 0
0.1697998 -0.027009964 -0.49865723 6846076 -0.99572283 0.029390952 0.087590769 0
0.17117587 -0.023973869 -0.49408883 7765114 -0.93685603 0.30486566 0.17134088 0
-0.15725227 -0.016955728 -0.49582392 6447967 0.91919935 0.36712056 0.14246093 0
0.16872406 -0.012494564 -0.49468994 7303537 -0.93518192 -0.055039711 0.34986487 0
0.17287445 -0.017410517 -0.49451447 5527379 -0.8989923 -0.055262178 0.43446407 0
-0.15379988 -0.0077056885 -0.49354771 6645863 0.99670959 0.0077391784 0.080685593 0
0.1687851 -0.0077521801 -0.49441528 7699062 -0.960464 -0.092147388 0.26271218 0
0.17004395 -0.0095596313 -0.49072266 7961723 -0.97456098 -0.15457964 0.16228417 0
0.16676331 0.0083448887 -0.49822998 3894402 -0.28713548 0.093756378 0.95329058 0
0.17251791 0.008554331 -0.49721679 4875380 -0.18343359 -0.18643519 0.96519119 0
0.16677758 0.015075068 -0.49786574 2061726 -0.5103339 -0.12350532 0.85106158 0
0.1751871 0.014911341 -0.49344307 5204606 -0.4474937 -0.20642078 0.87013781 0
0.18153889 0.016176224 -0.49072266 7567229 -0.11442511 -0.014941679 0.99331945 0
-0.085998535 0.022903442 -0.4987793 11644334 0 0 0 0
0.16615893 0.025216144 -0.49702433 2454685 -0.5919674 0.0033429826 0.80595499 0
0.17506362 0.024846703 -0.49261168 4485260 -0.37263411 0.056018051 0.92628598 0
0.18164062 0.024756538 -0.49072266 5594210 0 0 1 0
0.16685328 0.034963675 -0.49808896 2784163 -0.44110209 0.1766813 0.8798936 0
0.17507426 0.034958839 -0.49422708 4944782 -0.4502179 0.18386699 0.87378305 0
0.18127441 0.034759521 -0.49129233 5200482 -0.2638492 0.13872625 0.95453578 0
-0.085266113 0.048400879 -0.49487305 10789795 0 0 0 0
0.16687012 0.043591667 -0.49918142 2913177 -0.27477238 0.092774995 0.95702291 0
0.17480469 0.043266922 -0.49604172 5667217 -0.44203857 0.17782044 0.8791939 0
0.18066406 0.04152425 -0.49291992 6911877 0 0 1 0
-0.081420898 0.064758301 -0.49169922 6643036 0 0 0 0
-0.063357033 0.11767069 -0.49355063 5786956 -0.75814873 0.34289518 0.55464703 0
0.36192104 0.11916678 -0.49933735 4607311 -0.10807784 -0.67746383 0.72757262 0
-0.063018799 0.12107849 -0.49417114 7894131 -0.85985655 -0.039185949 0.50902957 0
0.34755406 0.12766284 -0.49565089 4542031 -0.66175157 -0.73871821 0.12798585 0
0.35445365 0.12324497 -0.49566972 4411215 -0.32370707 -0.91640872 0.23539069 0
0.36184353 0.12151422 -0.49812827 4345168 0.1507495 -0.76084507 0.631181 0
-0.051823206 0.13436453 -0.49496025 4469299 -0.60475528 0.58732373 0.53788638 0
-0.047529433 0.13753933 -0.49414062 4534577 -0.58060122 0.57414901 0.57728255 0
0.32773438 0.13843994 -0.49549967 4410443 -0.57542843 -0.78593051 0.226264 0
0.33476186 0.13471492 -0.49491811 4410700 -0.44935188 -0.87848663 0.16230907 0
0.34252027 0.13108543 -0.49496347 4476237 -0.39563349 -0.90970641 0.12612826 0
-0.043574333 0.14415741 -0.49637604 4732724 -0.58885407 0.52063209 0.61821771 0
-0.036503907 0.1473877 -0.49313477 4600113 -0.4914816 0.56419754 0.66342062 0
-0.029251099 0.14978027 -0.49072266 4796205 -0.42467684 0.61058688 0.6684559 0
0.032745361 0.14318848 -0.49072266 5193533 0.49340317 0.49681222 0.71395445 0
0.31728044 0.1478429 -0.49528256 4475979 -0.65249914 -0.75759196 -0.017300777 0
0.32336956 0.14262323 -0.49485713 4475978 -0.6661461 -0.74040169 0.089748785 0
-0.041381836 0.1505127 -0.49910483 5062717 -0.56024551 0.31470317 0.76621592 0
-0.033742633 0.15260097 -0.49531773 4666164 -0.41681653 0.48068511 0.77149576 0
-0.025713898 0.15608251 -0.49418038 4600112 -0.27975649 0.63610935 0.71909755 0
-0.01567786 0.15830776 -0.49176899 4796462 -0.27181756 0.69008726 0.67074198 0
-0.0048896791 0.15979004 -0.49072266 5453105 -0.0036054365 0.69295698 0.72096992 0
0.0066508451 0.15842693 -0.49133301 5255468 0.21987538 0.66870636 0.71027219 0
0.015821457 0.15670776 -0.49318442 5059375 0.27958247 0.59763974 0.75143898 0
0.021967838 0.15452175 -0.49344674 5126969 0.15713242 0.57738167 0.80121154 0
0.30883789 0.15344238 -0.4987793 3620672 -0.30803478 -0.91476995 0.26136285 0
0.31290689 0.15132198 -0.49618417 4146756 -0.61627257 -0.76758438 0.17613161 0
-0.023571309 0.16166805 -0.49862906 4731441 -0.25688782 0.65766037 0.70816058 0
-0.014466336 0.16334292 -0.49642783 4796720 -0.24664131 0.68871295 0.68179369 0
-0.0047333636 0.16494186 -0.4959943 4993327 -0.034401804 0.66589725 0.74524981 0
0.0048882435 0.16485493 -0.49658203 5124400 0.11783218 0.59288788 0.79661757 0
0.0141007 0.16253872 -0.49689353 5257785 0.14334805 0.48246318 0.86410683 0
0.0017846426 0.1706543 -0.49975586 5059377 -0.0082369205 0.065225489 0.99783653 0
-0.013807124 -0.080594152 -0.48939097 7816764 -0.13071232 -0.68021065 0.72126824 0
-0.0043909252 -0.081737518 -0.48919678 8803920 -0.0075768111 -0.67984962 0.73331243 0
0.0040766397 -0.080769859 -0.48920357 8277831 0.19808944 -0.66483885 0.7202428 0
-0.032272339 -0.071807861 -0.48876953 8146247 -0.46257469 -0.5567944 0.68993092 0
-0.024131011 -0.074165851 -0.48659667 7948610 -0.27147785 -0.61705881 0.73860562 0
-0.014875816 -0.074900307 -0.48441938 8145732 -0.16606253 -0.65073431 0.74092382 0
-0.0048244228 -0.076068215 -0.48427811 8080453 0.0015893886 -0.66404593 0.74769014 0
0.0051224977 -0.075103305 -0.48445153 8343112 0.16087948 -0.65579611 0.73759693 0
0.014046689 -0.073529184 -0.48656186 8080195 0.39439446 -0.63257933 0.6665557 0
0.021918161 -0.07097517 -0.48904854 8015431 0.44785699 -0.60345525 0.65974689 0
-0.04285007 -0.06238471 -0.48882377 7948612 -0.45688972 -0.54491013 0.70308238 0
-0.035040282 -0.064989723 -0.48517659 7882561 -0.50192326 -0.53447258 0.68000889 0
-0.026590807 -0.067500673 -0.48204303 7948611 -0.32335681 -0.59095848 0.73905915 0
-0.019432068 -0.068969727 -0.48071289 7948610 -0.14989732 -0.60678238 0.78060615 0
0.016270109 -0.067654081 -0.48229527 8276803 0.39355746 -0.61526418 0.68305373 0
0.024641164 -0.064764909 -0.48540446 7752003 0.49145034 -0.56336635 0.66414976 0
0.03201998 -0.061931904 -0.48876953 7819339 0.51659125 -0.51631647 0.68304521 0
-0.053272862 -0.052767847 -0.48873803 7884878 -0.42491311 -0.37221354 0.82517022 0
-0.045161724 -0.055166721 -0.48487091 7554112 -0.48806825 -0.49632701 0.71794766 0
-0.038149007 -0.057969157 -0.4820638 8145479 -0.52624619 -0.52626854 0.66791195 0
0.027750352 -0.057552561 -0.48196232 7357244 0.52989131 -0.53035164 0.66177207 0
0.034518011 -0.054919012 -0.48557046 7555139 0.57449496 -0.48700792 0.65785933 0
0.040998187 -0.051465716 -0.48918805 8017489 0.59515804 -0.42100549 0.68450075 0
0.27556205 -0.05373691 -0.48682681 7173488 -0.82302564 0.050691698 0.56573778 0
-0.061362527 -0.044075705 -0.48850319 10193289 -0.60125309 -0.15967631 0.782942 0
-0.055326574 -0.04500176 -0.48531565 7686985 -0.45962906 -0.45448759 0.76300865 0
-0.048029281 -0.047756419 -0.48190486 7554111 -0.52142388 -0.4818401 0.70423526 0
0.037468806 -0.046601471 -0.48240378 7489601 0.62638038 -0.44788361 0.63800305 0
0.044412177 -0.044296533 -0.48724902 8215640 0.53567028 -0.41737288 0.73406887 0
0.050354004 -0.042129517 -0.48974609 13419973 0.23500425 -0.14120615 0.9616828 0
0.27758789 -0.049763996 -0.48347983 7371642 -0.97433984 0.21115039 -0.077957019 0
0.3462632 -0.043221865 -0.4812299 4411217 -0.35884625 -0.41737366 0.83488238 0
-0.070544437 -0.033096313 -0.48857421 12828863 -0.31981894 0 0.94747865 0
-0.064729147 -0.034179915 -0.48678362 9137515 -0.44283906 -0.2859354 0.84978497 0
-0.057375226 -0.036874499 -0.48189873 7422525 -0.55652469 -0.35632512 0.75054163 0
0.046358798 -0.035501033 -0.48381919 7424067 0.6642589 -0.39468667 0.63480908 0
0.052452534 -0.033978183 -0.48839614 10061959 0.47062689 -0.31760347 0.82318801 0
-0.1556782 -0.023212634 -0.48504317 6516083 0.95655841 0.29137829 0.0097347992 0
-0.071159363 -0.022075653 -0.48608398 9534588 -0.28744116 -0.33593121 0.89695472 0
-0.065591983 -0.025071809 -0.48413825 7489862 -0.547221 -0.29839414 0.78199112 0
-0.059020996 -0.029968262 -0.48071289 9068376 -0.67014563 -0.33507282 0.66229236 0
0.048926458 -0.027379354 -0.48171657 7028793 0.69342589 -0.37370834 0.61603791 0
0.054498486 -0.024568127 -0.48521373 8941677 0.51288503 -0.31699032 0.79778826 0
0.17186822 -0.024422539 -0.48666722 7633527 -0.95775652 0.28622833 -0.02785122 0
-0.16023763 -0.015223186 -0.48307291 4408127 0.60942227 0.71622664 0.34003529 0
-0.15756837 -0.015794372 -0.4852539 5724243 0.84149319 0.49861816 0.20801221 0
-0.071598597 -0.014643805 -0.48352924 7358792 -0.29550302 -0.20796385 0.93243182 0
-0.067690641 -0.016337188 -0.48184869 7028281 -0.55068457 -0.37615418 0.74515408 0
0.056801692 -0.015252714 -0.48397714 7888218 0.62258542 -0.20668758 0.75476331 0
0.061545633 -0.012979681 -0.48690519 12301748 0.3590425 -0.077098705 0.93013132 0
0.16967773 -0.015068054 -0.48974609 6119519 -0.4979735 -0.8605299 0.10728773 0
0.17191117 -0.013023094 -0.48678023 7040619 -0.80655956 -0.36291963 0.46663803 0
-0.15514667 -0.0064720009 -0.48565203 7106668 0.98775536 -0.046898238 0.14879496 0
-0.073750816 -0.0050731939 -0.48103842 6767425 -0.33068064 -0.2149567 0.91893637 0
-0.069824219 -0.0093688965 -0.48071289 7291965 -0.58777875 -0.29733071 0.75240326 0
0.058186121 -0.0056732041 -0.48264858 6833729 0.7214095 -0.19209588 0.66533267 0
0.062644742 -0.0044923509 -0.48614678 9800072 0.49362588 -0.17740659 0.85138732 0
0.169458 -0.006436157 -0.48857421 7633268 -0.91942006 -0.3347773 0.20637548 0
0.17120039 -0.0075079263 -0.4859812 7501683 -0.89224464 -0.26073733 0.36866722 0
-0.075873241 0.0045783008 -0.4811314 6570304 -0.45287901 -0.066714004 0.88907248 0
0.058990479 0.0025627911 -0.48120117 6504248 0.73341912 -0.19398561 0.65151054 0
0.063280888 0.0050385231 -0.48420265 8285032 0.53084707 -0.18864885 0.82620394 0
-0.078090414 0.015379588 -0.48133138 6242110 -0.44425064 -0.039451391 0.89503348 0
0.064719722 0.014743877 -0.4838084 8021603 0.63664323 -0.077920854 0.76721168 0
0.1821696 0.014762878 -0.48974609 5856353 -0.70277506 0.012006282 0.71131074 0
-0.081674427 0.026016235 -0.48424354 7826030 -0.69151777 -0.10229743 0.71507931 0
-0.078886613 0.024916276 -0.48173192 6306877 -0.66885638 -0.058944982 0.74105102 0
0.065679185 0.025032712 -0.48381817 7955812 0.60639918 -0.036323655 0.7943303 0
-0.081654869 0.035268147 -0.48320854 7693928 -0.65887159 -0.020204011 0.75198418 0
-0.07913208 0.035125732 -0.48120117 6241340 -0.62831819 0.01136656 0.77787346 0
0.066106498 0.035313923 -0.48383248 8284520 0.66767228 -0.023889085 0.7440719 0
-0.081266515 0.04556454 -0.48428884 6310991 -0.66544604 0.0089533255 0.74639225 0
-0.078661464 0.044931512 -0.48153526 5978424 -0.7075429 0.085288979 0.70150465 0
0.066187881 0.045191787 -0.48445097 7363673 0.66568941 0.032109201 0.74553776 0
-0.081237793 0.053538006 -0.48421225 5852236 -0.6867668 -0.21105978 0.69556099 0
-0.078694664 0.054727059 -0.48168945 5715767 -0.61846811 -0.019264245 0.78557378 0
0.065938316 0.054713659 -0.48374721 7430238 0.62062073 -0.052889176 0.78232515 0
-0.080485024 0.066558838 -0.48616537 8222068 -0.73269325 0.39208525 0.5562641 0
-0.077077508 0.06520699 -0.48192701 5387828 -0.56101125 0.20468622 0.80210346 0
0.06460125 0.064674936 -0.48311856 7035224 0.67511779 0.082503207 0.73308194 0
-0.075383112 0.075063854 -0.48212141 5257016 -0.54309326 0.074990027 0.83631712 0
0.059204102 0.079528809 -0.48071289 6441282 0.65487456 0.18748425 0.73211277 0
0.062684804 0.074964732 -0.48267281 6837844 0.61966932 0.13781457 0.77266884 0
-0.072792269 0.085107423 -0.48304269 4862770 -0.4618203 0.3857806 0.79868358 0
-0.068817139 0.08719635 -0.4810791 5124140 -0.6734224 0.28307217 0.68291461 0
0.057970684 0.086186729 -0.48219809 5783097 0.65540111 0.29524046 0.69518524 0
0.061198644 0.084921703 -0.48435757 7167324 0.47138733 0.20738535 0.85719615 0
-0.071411133 0.094340004 -0.48654515 5126971 -0.55831081 0.30941039 0.76977545 0
-0.067294031 0.095634691 -0.48296195 4730413 -0.70794666 0.19060928 0.68005854 0
0.056395896 0.095178455 -0.48412615 6508620 0.61348861 0.22178689 0.75791973 0
0.06087821 0.093741283 -0.48681641 10723228 0.34669337 0.31450516 0.88367993 0
-0.063269615 0.10489655 -0.48226929 4796465 -0.38314995 0.38865906 0.83793813 0
-0.058392335 0.10844727 -0.48090822 4335141 -0.55406189 0.44701472 0.70227718 0
0.04864502 0.10737492 -0.4820275 5387312 0.66575617 0.34964642 0.65917838 0
0.05248813 0.10414071 -0.48381096 5586747 0.57380605 0.32060188 0.75363189 0
-0.062123615 0.11282349 -0.48746744 4600371 -0.51409411 0.58477575 0.6274907 0
-0.056267273 0.11599277 -0.48388153 4730155 -0.63803732 0.37039065 0.67506975 0
-0.049255371 0.11968994 -0.48071289 4927276 -0.62502408 0.38412941 0.67955095 0
0.039718628 0.1192627 -0.48120117 4860713 0.6449526 0.42298692 0.63648897 0
0.046043541 0.11539675 -0.48385447 5454902 0.48131886 0.35479635 0.80153084 0
0.051245116 0.11235352 -0.48564452 6774107 0.43492728 0.11663532 0.89287984 0
-0.053999159 0.12389866 -0.48620334 4468782 -0.41180679 0.44701263 0.79410005 0
-0.046522353 0.12645976 -0.48302543 4598825 -0.5324778 0.50849557 0.67668277 0
0.036587525 0.12628348 -0.4829869 4862252 0.57814318 0.43633583 0.68946469 0
0.042845875 0.1242724 -0.48642451 5390139 0.393527 0.3173736 0.86279219 0
0.34794921 0.12819417 -0.48519695 4475982 -0.57177258 -0.81365567 0.10507424 0
0.35303608 0.12553188 -0.48689488 4542031 -0.29010403 -0.92736989 0.23627229 0
-0.050170898 0.1307373 -0.48974609 4534319 -0.48648149 0.62696075 0.60848677 0
-0.043818157 0.13383314 -0.48700631 4467753 -0.53729856 0.56561136 0.625615 0
-0.036141969 0.13609314 -0.48308715 4730152 -0.46642751 0.54779017 0.69452953 0
-0.028934479 0.13897705 -0.48095703 4992807 -0.37332955 0.56287128 0.73742867 0
0.026301529 0.13667066 -0.48256245 4993065 0.49698707 0.52291745 0.69250351 0
0.034280505 0.13464138 -0.48644584 4929073 0.38040718 0.45272821 0.80642885 0
0.040527344 0.131073 -0.48779297 5193790 0.46144867 0.064663947 0.88480717 0
0.32954103 0.13952637 -0.48574218 4475979 -0.55598873 -0.79402077 0.24577962 0
0.33489311 0.13639323 -0.48516846 4475980 -0.47861588 -0.85763711 0.18811017 0
0.3428902 0.13236932 -0.48468813 4410189 -0.56532925 -0.80597216 0.17553259 0
-0.040222168 0.14074707 -0.48974609 4468522 -0.55124938 0.55952638 0.61891395 0
-0.033811163 0.14318109 -0.48746744 4665130 -0.44677249 0.58269703 0.67886549 0
-0.025035152 0.14520264 -0.4842439 4992812 -0.36759797 0.59498107 0.71475118 0
-0.015204366 0.14751384 -0.48198241 5058344 -0.22175257 0.60336173 0.76601589 0
-0.0047947299 0.14858669 -0.48130968 5386540 0.017443197 0.62717092 0.77868634 0
0.0052243164 0.14795373 -0.4819788 5320490 0.13032822 0.62732214 0.76777703 0
0.015274365 0.14573669 -0.48363242 5320748 0.34148061 0.60893297 0.71595508 0
0.024278676 0.14444247 -0.48676315 5125167 0.34528324 0.51207745 0.78648335 0
0.031849254 0.14159046 -0.48930219 5258296 0.38859212 0.31827459 0.86469495 0
0.31697387 0.14771423 -0.48444825 4344906 -0.47894913 -0.67410624 0.56230646 0
0.32459027 0.14333001 -0.48552847 4344907 -0.54321682 -0.8227421 0.16736478 0
-0.022868855 0.15165202 -0.48857421 4927790 -0.34756839 0.62342656 0.70038247 0
-0.014522273 0.15357934 -0.4869355 4993068 -0.2114291 0.64527375 0.73411143 0
-0.0048466525 0.15455458 -0.48650897 5189419 -0.0047863354 0.64749461 0.76205504 0
0.0047843563 0.15387796 -0.48688298 5321003 0.15465422 0.63558179 0.75638467 0
0.01404794 0.15205383 -0.488444 5124650 0.30702335 0.61077422 0.72985721 0
0.020523071 0.15063477 -0.48974609 4665389 0.30175349 0.60769802 0.73460734 0
0.31574896 0.15082256 -0.48360503 4279368 -0.65884942 -0.58996111 0.46675831 0
-0.010730743 -0.071044922 -0.47973633 8278090 -0.15051217 -0.60768098 0.77978837 0
-0.0047799479 -0.071044922 -0.47973633 8343880 0 -0.61527675 0.78831112 0
0.0011718273 -0.071044922 -0.47973633 7620673 0.19954982 -0.6319713 0.7488606 0
-0.03144582 -0.060887653 -0.4794108 7948099 -0.34148055 -0.49143404 0.80117649 0
-0.024388269 -0.063328333 -0.47824824 8342598 -0.27193812 -0.49722344 0.8239044 0
-0.014693019 -0.064832576 -0.47648898 8080196 -0.19313155 -0.54436553 0.81631267 0
-0.0047351108 -0.064998299 -0.47530261 8146245 0.0017675601 -0.57479244 0.81829733 0
0.0048015118 -0.06498836 -0.47634026 8145990 0.1583854 -0.57214397 0.8047145 0
0.013747491 -0.063446045 -0.47756076 8211525 0.3113485 -0.57590073 0.7559104 0
0.020959472 -0.061022948 -0.47934571 7356219 0.42824721 -0.54642665 0.71973759 0
-0.041152954 -0.051122028 -0.4790853 8014406 -0.45791024 -0.5113371 0.7272225 0
-0.034371048 -0.054166701 -0.47730693 8145477 -0.40404046 -0.4484866 0.7972523 0
-0.025277507 -0.055517171 -0.47389647 8211269 -0.30554923 -0.49464872 0.81361061 0
