# .PCD v0.7 - Point Cloud Data file format
VERSION 0.7
FIELDS x y z rgb normal_x normal_y normal_z curvature
SIZE 4 4 4 4 4 4 4 4
TYPE F F F U F F F F
COUNT 1 1 1 1 1 1 1 1
WIDTH 887
HEIGHT 1
VIEWPOINT 0 0 0 1 0 0 0
POINTS 887
DATA ascii
0.47775024 1.0356692 -0.019592287 4278190080 0 0 0 0
0.47945112 1.035712 -0.019543733 4278190080 0 0 0 0
0.48162431 1.0367712 -0.019514315 4278190080 0 0 0 0
0.48332685 1.0368139 -0.019465711 4278190080 0 0 0 0
0.48502946 1.0368567 -0.019417107 4278190080 0 0 0 0
-0.40504095 1.0358084 -0.047246609 4278190080 0 0 0 0
-0.40252852 1.0338621 -0.047106333 4278190080 0 0 0 0
-0.40040845 1.0329106 -0.047011528 4278190080 0 0 0 0
-0.39713946 1.0289735 -0.046781097 4278190080 0 0 0 0
-0.39388385 1.0250361 -0.046551041 4278190080 0 0 0 0
-0.39064163 1.0210984 -0.046321373 4278190080 0 0 0 0
-0.38703364 1.0161651 -0.046046995 4278190080 0 0 0 0
-0.38306499 1.0102361 -0.045728028 4278190080 0 0 0 0
-0.37911633 1.0043064 -0.045409635 4278190080 0 0 0 0
-0.37481362 0.99738109 -0.045046862 4278190080 0 0 0 0
-0.37090674 0.99145049 -0.044729661 4278190080 0 0 0 0
-0.3670198 0.98551947 -0.044413038 4278190080 0 0 0 0
-0.35967347 0.97465134 -0.043826245 4278190080 0 0 0 0
-0.35547933 0.96772319 -0.043466579 4278190080 0 0 0 0
-0.35130847 0.96079439 -0.043107565 4278190080 0 0 0 0
-0.34788582 0.95585644 -0.042838465 4278190080 0 0 0 0
-0.34411907 0.94992232 -0.042525262 4278190080 0 0 0 0
-0.34073144 0.94498348 -0.042257152 4278190080 0 0 0 0
-0.33807525 0.94203585 -0.042078502 4278190080 0 0 0 0
-0.33507335 0.93809205 -0.041855697 4278190080 0 0 0 0
-0.33279291 0.93613982 -0.041722044 4278190080 0 0 0 0
-0.33051911 0.93418735 -0.041588571 4278190080 0 0 0 0
-0.32825202 0.9322347 -0.041455291 4278190080 0 0 0 0
-0.32634062 0.93127793 -0.041366462 4278190080 0 0 0 0
-0.3237378 0.92832899 -0.041189324 4278190080 0 0 0 0
-0.32183644 0.92737192 -0.041100763 4278190080 0 0 0 0
-0.31993839 0.92641485 -0.041012302 4278190080 0 0 0 0
-0.31804365 0.92545754 -0.040923942 4278190080 0 0 0 0
-0.31615224 0.92450029 -0.040835664 4278190080 0 0 0 0
-0.31426427 0.92354298 -0.040747501 4278190080 0 0 0 0
-0.31237954 0.92258555 -0.040659405 4278190080 0 0 0 0
-0.31083387 0.92262435 -0.040615283 4278190080 0 0 0 0
-0.30928814 0.92266315 -0.040571157 4278190080 0 0 0 0
-0.30741018 0.92170554 -0.040483281 4278190080 0 0 0 0
-0.30553547 0.92074782 -0.04039548 4278190080 0 0 0 0
-0.30366415 0.91979003 -0.040307779 4278190080 0 0 0 0
-0.30179614 0.91883218 -0.040220182 4278190080 0 0 0 0
-0.30025715 0.91887087 -0.04017625 4278190080 0 0 0 0
-0.29839411 0.91791284 -0.040088788 4278190080 0 0 0 0
-0.29685679 0.91795141 -0.0400449 4278190080 0 0 0 0
-0.29499879 0.91699332 -0.03995759 4278190080 0 0 0 0
-0.29314411 0.91603506 -0.039870366 4278190080 0 0 0 0
-0.29161012 0.91607362 -0.039826576 4278190080 0 0 0 0
-0.29007611 0.91611212 -0.039782785 4278190080 0 0 0 0
-0.28822815 0.91515386 -0.039695751 4278190080 0 0 0 0
-0.28669581 0.91519231 -0.039652009 4278190080 0 0 0 0
-0.28516352 0.91523081 -0.039608266 4278190080 0 0 0 0
-0.28363118 0.91526932 -0.039564524 4278190080 0 0 0 0
-0.28209886 0.91530782 -0.039520781 4278190080 0 0 0 0
-0.28056651 0.91534626 -0.039477039 4278190080 0 0 0 0
-0.27933812 0.91638184 -0.039476253 4278190080 0 0 0 0
-0.27810642 0.91741759 -0.039475374 4278190080 0 0 0 0
-0.27657074 0.91745615 -0.039431535 4278190080 0 0 0 0
-0.27503505 0.91749477 -0.039387695 4278190080 0 0 0 0
-0.27379668 0.91853064 -0.039386619 4278190080 0 0 0 0
-0.27225935 0.91856921 -0.039342735 4278190080 0 0 0 0
-0.270722 0.91860783 -0.039298847 4278190080 0 0 0 0
-0.26947695 0.91964394 -0.039297584 4278190080 0 0 0 0
-0.26793793 0.91968262 -0.039253652 4278190080 0 0 0 0
-0.26668787 0.92071879 -0.03925224 4278190080 0 0 0 0
-0.26543444 0.92175502 -0.039250739 4278190080 0 0 0 0
-0.26389208 0.92179376 -0.039206713 4278190080 0 0 0 0
-0.26234972 0.9218325 -0.039162684 4278190080 0 0 0 0
-0.26108965 0.92286897 -0.039161 4278190080 0 0 0 0
-0.25954565 0.92290777 -0.039116923 4278190080 0 0 0 0
-0.25828052 0.92394429 -0.039115075 4278190080 0 0 0 0
-0.25673488 0.9239831 -0.039070953 4278190080 0 0 0 0
-0.25518915 0.92402196 -0.039026827 4278190080 0 0 0 0
-0.25364351 0.92406076 -0.038982704 4278190080 0 0 0 0
-0.25209779 0.92409956 -0.038938582 4278190080 0 0 0 0
-0.25055212 0.92413843 -0.038894456 4278190080 0 0 0 0
-0.24900644 0.92417723 -0.038850334 4278190080 0 0 0 0
-0.24746074 0.92421603 -0.038806207 4278190080 0 0 0 0
-0.24591507 0.92425489 -0.038762085 4278190080 0 0 0 0
-0.24436937 0.9242937 -0.038717963 4278190080 0 0 0 0
-0.24282371 0.9243325 -0.03867384 4278190080 0 0 0 0
-0.24127801 0.92437136 -0.038629714 4278190080 0 0 0 0
-0.23999122 0.92540842 -0.038627274 4278190080 0 0 0 0
-0.23870108 0.9264456 -0.038624711 4278190080 0 0 0 0
-0.23740759 0.92748284 -0.038622078 4278190080 0 0 0 0
-0.23636468 0.92951864 -0.038660858 4278190080 0 0 0 0
-0.23481064 0.92955768 -0.038616497 4278190080 0 0 0 0
-0.23375769 0.93159366 -0.038654998 4278190080 0 0 0 0
-0.23269808 0.93362987 -0.038693309 4278190080 0 0 0 0
-0.23163177 0.93566626 -0.03873143 4278190080 0 0 0 0
-0.23080434 0.93870139 -0.038810644 4278190080 0 0 0 0
-0.22947916 0.93973947 -0.038807087 4278190080 0 0 0 0
-0.22839281 0.94177628 -0.038844638 4278190080 0 0 0 0
-0.22729982 0.94381332 -0.038882002 4278190080 0 0 0 0
-0.22620013 0.94585049 -0.038919151 4278190080 0 0 0 0
-0.2248566 0.9468891 -0.038915083 4278190080 0 0 0 0
-0.22350971 0.94792765 -0.038910899 4278190080 0 0 0 0
-0.22215948 0.94896638 -0.038906649 4278190080 0 0 0 0
-0.22080591 0.95000517 -0.038902275 4278190080 0 0 0 0
-0.219449 0.95104402 -0.038897838 4278190080 0 0 0 0
-0.21808879 0.95208299 -0.038893279 4278190080 0 0 0 0
-0.21649803 0.95212299 -0.038847871 4278190080 0 0 0 0
-0.21490727 0.95216292 -0.03880246 4278190080 0 0 0 0
-0.21331652 0.95220286 -0.038757049 4278190080 0 0 0 0
-0.21172577 0.95224285 -0.038711637 4278190080 0 0 0 0
-0.21035549 0.953282 -0.038706794 4278190080 0 0 0 0
-0.2089819 0.95432127 -0.038701866 4278190080 0 0 0 0
-0.20825645 0.95835865 -0.03881827 4278190080 0 0 0 0
-0.20708667 0.96039754 -0.038853429 4278190080 0 0 0 0
-0.20591021 0.96243668 -0.038888413 4278190080 0 0 0 0
-0.20515136 0.96647495 -0.039003856 4278190080 0 0 0 0
-0.20437917 0.97051346 -0.039118942 4278190080 0 0 0 0
-0.20380244 0.9755519 -0.039273862 4278190080 0 0 0 0
-0.20320901 0.98059076 -0.039428324 4278190080 0 0 0 0
-0.2021759 0.9916693 -0.039775897 4278190080 0 0 0 0
-0.20173286 0.9977091 -0.039968915 4278190080 0 0 0 0
-0.20167074 1.0057489 -0.040241376 4278190080 0 0 0 0
-0.20158193 1.0137895 -0.040513076 4278190080 0 0 0 0
-0.20126924 1.0208309 -0.040744096 4278190080 0 0 0 0
-0.20073774 1.0268729 -0.040934596 4278190080 0 0 0 0
-0.19960485 1.0299157 -0.041005082 4278190080 0 0 0 0
-0.19865406 1.0339587 -0.04111506 4278190080 0 0 0 0
-0.1634801 1.0529283 -0.040727992 4278190080 0 0 0 0
-0.16172409 1.0529724 -0.040677864 4278190080 0 0 0 0
-0.15996809 1.0530165 -0.040627737 4278190080 0 0 0 0
-0.1582121 1.0530607 -0.040577609 4278190080 0 0 0 0
-0.15645608 1.0531048 -0.040527482 4278190080 0 0 0 0
-0.15484715 1.05415 -0.040515833 4278190080 0 0 0 0
-0.15308946 1.0541941 -0.040465657 4278190080 0 0 0 0
-0.15133178 1.0542383 -0.040415481 4278190080 0 0 0 0
-0.1495741 1.0542824 -0.040365305 4278190080 0 0 0 0
-0.1479568 1.0553278 -0.040353417 4278190080 0 0 0 0
-0.14619745 1.055372 -0.040303197 4278190080 0 0 0 0
-0.14443812 1.0554161 -0.040252972 4278190080 0 0 0 0
-0.14267877 1.0554603 -0.040202752 4278190080 0 0 0 0
-0.14091943 1.0555046 -0.040152527 4278190080 0 0 0 0
-0.13916008 1.0555487 -0.040102303 4278190080 0 0 0 0
-0.1375311 1.0565944 -0.040090069 4278190080 0 0 0 0
-0.13577008 1.0566386 -0.040039796 4278190080 0 0 0 0
-0.13400908 1.0566828 -0.039989527 4278190080 0 0 0 0
-0.13224806 1.0567271 -0.039939255 4278190080 0 0 0 0
-0.13048705 1.0567713 -0.039888985 4278190080 0 0 0 0
-0.12872604 1.0568155 -0.039838716 4278190080 0 0 0 0
-0.12696502 1.0568597 -0.039788444 4278190080 0 0 0 0
-0.12520401 1.056904 -0.039738175 4278190080 0 0 0 0
-0.123443 1.0569482 -0.039687905 4278190080 0 0 0 0
-0.12168199 1.0569924 -0.039637633 4278190080 0 0 0 0
-0.11992097 1.0570366 -0.039587364 4278190080 0 0 0 0
-0.11815996 1.0570809 -0.039537091 4278190080 0 0 0 0
-0.11639894 1.0571251 -0.039486822 4278190080 0 0 0 0
-0.11463793 1.0571693 -0.039436553 4278190080 0 0 0 0
-0.11276992 1.0562116 -0.03934896 4278190080 0 0 0 0
-0.11101057 1.0562557 -0.039298739 4278190080 0 0 0 0
-0.10925122 1.0562999 -0.039248515 4278190080 0 0 0 0
-0.10749188 1.0563442 -0.039198291 4278190080 0 0 0 0
-0.10563223 1.0553861 -0.039110925 4278190080 0 0 0 0
-0.10387455 1.0554303 -0.039060749 4278190080 0 0 0 0
-0.1020199 1.054472 -0.038973525 4278190080 0 0 0 0
-0.10026389 1.0545161 -0.038923398 4278190080 0 0 0 0
-0.098414242 1.0535576 -0.038836319 4278190080 0 0 0 0
-0.015930045 1.0536199 -0.036413148 4278190080 0 0 0 0
-0.014179047 1.0536638 -0.036363166 4278190080 0 0 0 0
-0.012428049 1.0537078 -0.03631318 4278190080 0 0 0 0
-0.01068723 1.0547564 -0.03629775 4278190080 0 0 0 0
-0.008934563 1.0548004 -0.036247719 4278190080 0 0 0 0
-0.007181894 1.0548445 -0.036197688 4278190080 0 0 0 0
-0.0054240562 1.0538838 -0.03611324 4278190080 0 0 0 0
-0.003673058 1.0539278 -0.036063258 4278190080 0 0 0 0
-0.0019220598 1.0539718 -0.036013272 4278190080 0 0 0 0
-0.00017106161 1.0540158 -0.035963289 4278190080 0 0 0 0
0.0015799385 1.0540597 -0.035913303 4278190080 0 0 0 0
0.0033309348 1.0541036 -0.035863318 4278190080 0 0 0 0
0.005077092 1.0531428 -0.035779178 4278190080 0 0 0 0
0.0068264212 1.0531868 -0.035729241 4278190080 0 0 0 0
0.0085757505 1.0532306 -0.035679303 4278190080 0 0 0 0
0.010325076 1.0532746 -0.035629366 4278190080 0 0 0 0
0.012074409 1.0533186 -0.035579428 4278190080 0 0 0 0
0.013823738 1.0533625 -0.035529491 4278190080 0 0 0 0
0.015573068 1.0534065 -0.035479557 4278190080 0 0 0 0
0.017322397 1.0534503 -0.035429619 4278190080 0 0 0 0
0.019071726 1.0534943 -0.035379682 4278190080 0 0 0 0
0.020840924 1.0545435 -0.035363473 4278190080 0 0 0 0
0.022570385 1.0535822 -0.035279807 4278190080 0 0 0 0
0.02431971 1.0536262 -0.035229869 4278190080 0 0 0 0
0.026069047 1.05367 -0.035179932 4278190080 0 0 0 0
0.042814132 1.0360044 -0.034084901 4278190080 0 0 0 0
0.044533413 1.0360476 -0.034035824 4278190080 0 0 0 0
0.046207786 1.0350848 -0.033953752 4278190080 0 0 0 0
0.047925398 1.035128 -0.03390472 4278190080 0 0 0 0
0.049594767 1.0341651 -0.033822786 4278190080 0 0 0 0
0.051260799 1.0332022 -0.033740956 4278190080 0 0 0 0
0.052923501 1.0322392 -0.033659205 4278190080 0 0 0 0
0.054636106 1.0322821 -0.033610314 4278190080 0 0 0 0
0.056293793 1.0313191 -0.033528723 4278190080 0 0 0 0
0.058004729 1.0313621 -0.033479881 4278190080 0 0 0 0
0.059657402 1.0303987 -0.033398431 4278190080 0 0 0 0
0.063075945 1.0304846 -0.033300843 4278190080 0 0 0 0
0.069844738 1.0296497 -0.033073332 4278190080 0 0 0 0
0.07148239 1.0286862 -0.032992318 4278190080 0 0 0 0
0.073188327 1.0287291 -0.032943618 4278190080 0 0 0 0
0.074894264 1.0287719 -0.032894921 4278190080 0 0 0 0
0.076600179 1.0288148 -0.032846224 4278190080 0 0 0 0
0.078306116 1.0288576 -0.032797523 4278190080 0 0 0 0
0.079933748 1.0278937 -0.032716773 4278190080 0 0 0 0
0.081638008 1.0279365 -0.032668121 4278190080 0 0 0 0
0.083342269 1.0279793 -0.032619473 4278190080 0 0 0 0
0.085046537 1.0280221 -0.03257082 4278190080 0 0 0 0
0.08675079 1.0280648 -0.032522172 4278190080 0 0 0 0
0.088455051 1.0281076 -0.032473519 4278190080 0 0 0 0
0.090159312 1.0281504 -0.032424871 4278190080 0 0 0 0
0.09186358 1.0281932 -0.032376219 4278190080 0 0 0 0
0.093659483 1.0292432 -0.032359242 4278190080 0 0 0 0
0.095365413 1.029286 -0.032310542 4278190080 0 0 0 0
0.097071335 1.0293289 -0.032261845 4278190080 0 0 0 0
0.098777264 1.0293717 -0.032213148 4278190080 0 0 0 0
0.1004832 1.0294147 -0.032164447 4278190080 0 0 0 0
0.10218913 1.0294574 -0.03211575 4278190080 0 0 0 0
0.10389506 1.0295002 -0.032067053 4278190080 0 0 0 0
0.10570432 1.0305505 -0.032049671 4278190080 0 0 0 0
0.10741191 1.0305934 -0.032000925 4278190080 0 0 0 0
0.1091195 1.0306362 -0.03195218 4278190080 0 0 0 0
0.11082712 1.0306791 -0.031903435 4278190080 0 0 0 0
0.1125347 1.030722 -0.031854689 4278190080 0 0 0 0
0.1142423 1.0307649 -0.03180594 4278190080 0 0 0 0
0.1159499 1.0308077 -0.031757198 4278190080 0 0 0 0
0.11765751 1.0308506 -0.031708449 4278190080 0 0 0 0
0.11936511 1.0308936 -0.031659704 4278190080 0 0 0 0
0.12107271 1.0309365 -0.031610958 4278190080 0 0 0 0
0.12278031 1.0309794 -0.031562213 4278190080 0 0 0 0
0.12448791 1.0310222 -0.031513467 4278190080 0 0 0 0
0.12619551 1.0310651 -0.031464722 4278190080 0 0 0 0
0.12802814 1.0321159 -0.031446695 4278190080 0 0 0 0
0.12973739 1.0321589 -0.031397901 4278190080 0 0 0 0
0.13157505 1.0332099 -0.031379715 4278190080 0 0 0 0
0.13315594 1.0322448 -0.031300314 4278190080 0 0 0 0
0.13499691 1.0332959 -0.031282034 4278190080 0 0 0 0
0.13670787 1.0333388 -0.031233191 4278190080 0 0 0 0
0.13841879 1.0333818 -0.031184351 4278190080 0 0 0 0
0.14026643 1.0344329 -0.031165881 4278190080 0 0 0 0
0.14197904 1.0344759 -0.031116992 4278190080 0 0 0 0
0.14369164 1.034519 -0.031068103 4278190080 0 0 0 0
0.14540425 1.034562 -0.031019215 4278190080 0 0 0 0
0.14711685 1.0346049 -0.030970326 4278190080 0 0 0 0
0.14868441 1.0336397 -0.030891305 4278190080 0 0 0 0
0.15039535 1.0336826 -0.030842464 4278190080 0 0 0 0
0.1521063 1.0337256 -0.030793622 4278190080 0 0 0 0
0.17366809 1.0302479 -0.030041 4278190080 0 0 0 0
0.17537233 1.0302907 -0.029992349 4278190080 0 0 0 0
0.17707662 1.0303335 -0.029943697 4278190080 0 0 0 0
0.17860577 1.0293672 -0.029865773 4278190080 0 0 0 0
0.18030837 1.02941 -0.029817171 4278190080 0 0 0 0
0.18201095 1.0294528 -0.029768568 4278190080 0 0 0 0
0.18371354 1.0294955 -0.029719966 4278190080 0 0 0 0
0.18523434 1.0285289 -0.029642265 4278190080 0 0 0 0
0.18693526 1.0285716 -0.02959371 4278190080 0 0 0 0
0.18845107 1.0276047 -0.029516166 4278190080 0 0 0 0
0.19015031 1.0276474 -0.029467659 4278190080 0 0 0 0
0.19184956 1.0276901 -0.02941915 4278190080 0 0 0 0
0.19354881 1.0277327 -0.029370643 4278190080 0 0 0 0
0.19524808 1.0277754 -0.029322136 4278190080 0 0 0 0
0.19694734 1.0278181 -0.029273629 4278190080 0 0 0 0
0.19864658 1.0278608 -0.029225122 4278190080 0 0 0 0
0.20054264 1.0289134 -0.029205268 4278190080 0 0 0 0
0.20224357 1.0289561 -0.029156713 4278190080 0 0 0 0
0.20414464 1.0300087 -0.029136732 4278190080 0 0 0 0
0.20604904 1.0310612 -0.029116642 4278190080 0 0 0 0
0.2077533 1.031104 -0.029067991 4278190080 0 0 0 0
0.20945755 1.0311469 -0.029019341 4278190080 0 0 0 0
0.21116182 1.0311897 -0.028970689 4278190080 0 0 0 0
0.21307458 1.0322425 -0.028950375 4278190080 0 0 0 0
0.21478051 1.0322853 -0.028901678 4278190080 0 0 0 0
0.23331723 1.0317461 -0.028338235 4278190080 0 0 0 0
0.23502144 1.0317889 -0.028289584 4278190080 0 0 0 0
0.23672572 1.0318317 -0.028240934 4278190080 0 0 0 0
0.23842996 1.0318745 -0.028192284 4278190080 0 0 0 0
0.24013424 1.0319173 -0.028143633 4278190080 0 0 0 0
0.24183851 1.0319601 -0.028094981 4278190080 0 0 0 0
0.24378131 1.0330137 -0.02807381 4278190080 0 0 0 0
0.24548726 1.0330566 -0.028025111 4278190080 0 0 0 0
0.24719317 1.0330994 -0.027976414 4278190080 0 0 0 0
0.24889912 1.0331423 -0.027927715 4278190080 0 0 0 0
0.25060502 1.0331851 -0.027879018 4278190080 0 0 0 0
0.25231096 1.0332279 -0.027830318 4278190080 0 0 0 0
0.25401688 1.0332708 -0.027781621 4278190080 0 0 0 0
0.28813979 1.0280992 -0.026601855 4278190080 0 0 0 0
0.28983569 1.0281417 -0.026553445 4278190080 0 0 0 0
0.29153162 1.0281843 -0.026505031 4278190080 0 0 0 0
0.29351616 1.0292391 -0.026482653 4278190080 0 0 0 0
0.29521376 1.0292816 -0.026434192 4278190080 0 0 0 0
0.29691133 1.0293243 -0.026385732 4278190080 0 0 0 0
0.30060175 1.0304216 -0.026314672 4278190080 0 0 0 0
0.31866625 1.0288658 -0.025730437 4278190080 0 0 0 0
0.33970708 1.0263798 -0.025026957 4278190080 0 0 0 0
0.341398 1.0264223 -0.024978686 4278190080 0 0 0 0
0.34308892 1.0264648 -0.024930418 4278190080 0 0 0 0
0.34477979 1.0265073 -0.024882149 4278190080 0 0 0 0
0.34647071 1.0265497 -0.02483388 4278190080 0 0 0 0
0.34816164 1.0265921 -0.024785612 4278190080 0 0 0 0
0.34985256 1.0266347 -0.024737339 4278190080 0 0 0 0
0.35154343 1.0266771 -0.024689071 4278190080 0 0 0 0
0.35323435 1.0267196 -0.024640802 4278190080 0 0 0 0
0.35492527 1.026762 -0.024592534 4278190080 0 0 0 0
0.35696822 1.0278183 -0.024568502 4278190080 0 0 0 0
0.35866079 1.0278609 -0.024520185 4278190080 0 0 0 0
0.36035338 1.0279033 -0.024471868 4278190080 0 0 0 0
0.36168891 1.026932 -0.024399456 4278190080 0 0 0 0
0.36337978 1.0269744 -0.024351187 4278190080 0 0 0 0
0.3650707 1.0270169 -0.024302918 4278190080 0 0 0 0
0.36639956 1.0260457 -0.024230711 4278190080 0 0 0 0
0.36808884 1.0260881 -0.024182487 4278190080 0 0 0 0
0.36977804 1.0261306 -0.024134267 4278190080 0 0 0 0
0.37146729 1.026173 -0.024086045 4278190080 0 0 0 0
0.37315652 1.0262154 -0.024037825 4278190080 0 0 0 0
0.37484574 1.0262578 -0.023989603 4278190080 0 0 0 0
0.37616289 1.025286 -0.023917716 4278190080 0 0 0 0
0.37785044 1.0253283 -0.023869541 4278190080 0 0 0 0
0.37953806 1.0253707 -0.023821367 4278190080 0 0 0 0
0.38122559 1.0254132 -0.023773193 4278190080 0 0 0 0
0.3829132 1.0254555 -0.023725018 4278190080 0 0 0 0
0.38498119 1.0265124 -0.023700273 4278190080 0 0 0 0
0.38667044 1.0265548 -0.023652051 4278190080 0 0 0 0
0.38835967 1.0265973 -0.02360383 4278190080 0 0 0 0
0.39043432 1.0276539 -0.023578878 4278190080 0 0 0 0
0.39212519 1.0276964 -0.02353061 4278190080 0 0 0 0
0.39381611 1.0277388 -0.023482341 4278190080 0 0 0 0
0.39589745 1.0287961 -0.023457214 4278190080 0 0 0 0
0.39759004 1.0288386 -0.023408897 4278190080 0 0 0 0
0.3992826 1.0288811 -0.02336058 4278190080 0 0 0 0
0.45255071 1.0282094 -0.021771409 4278190080 0 0 0 0
0.45423993 1.0282519 -0.021723188 4278190080 0 0 0 0
0.45592919 1.0282943 -0.021674966 4278190080 0 0 0 0
0.45761839 1.0283368 -0.021626744 4278190080 0 0 0 0
0.45930764 1.0283792 -0.021578524 4278190080 0 0 0 0
0.46145242 1.0294377 -0.021551572 4278190080 0 0 0 0
0.46314329 1.0294801 -0.021503303 4278190080 0 0 0 0
0.46483421 1.0295225 -0.021455033 4278190080 0 0 0 0
0.46698567 1.0305816 -0.021427903 4278190080 0 0 0 0
0.46914047 1.0316405 -0.021400664 4278190080 0 0 0 0
0.47129852 1.0326995 -0.021373341 4278190080 0 0 0 0
0.47299448 1.032742 -0.021324927 4278190080 0 0 0 0
0.4756248 1.0348175 -0.0213184 4278190080 0 0 0 0
0.47732407 1.0348601 -0.021269893 4278190080 0 0 0 0
0.47949386 1.0359197 -0.021242227 4278190080 0 0 0 0
0.48166707 1.0369791 -0.021214478 4278190080 0 0 0 0
0.48336962 1.0370218 -0.021165874 4278190080 0 0 0 0
-0.41021025 1.0358899 -0.04913057 4278190080 0 0 0 0
-0.4084726 1.0359335 -0.049080968 4278190080 0 0 0 0
-0.40634429 1.034982 -0.048984274 4278190080 0 0 0 0
-0.40460828 1.0350256 -0.04893472 4278190080 0 0 0 0
-0.40132281 1.0310881 -0.048697129 4278190080 0 0 0 0
-0.3992078 1.0301363 -0.048600812 4278190080 0 0 0 0
-0.39517593 1.0242076 -0.048270036 4278190080 0 0 0 0
-0.39154646 1.0192738 -0.047986694 4278190080 0 0 0 0
-0.38755301 1.013344 -0.047657028 4278190080 0 0 0 0
-0.38357955 1.007414 -0.047327921 4278190080 0 0 0 0
-0.36714143 0.9816972 -0.045924056 4278190080 0 0 0 0
-0.36327145 0.97576445 -0.045597889 4278190080 0 0 0 0
-0.35942152 0.96983123 -0.045272317 4278190080 0 0 0 0
-0.35595897 0.96489328 -0.044993736 4278190080 0 0 0 0
-0.35214749 0.95895904 -0.044669244 4278190080 0 0 0 0
-0.34835595 0.95302433 -0.044345334 4278190080 0 0 0 0
-0.34494683 0.94808501 -0.044068277 4278190080 0 0 0 0
-0.34191507 0.94414127 -0.043837946 4278190080 0 0 0 0
-0.33925566 0.94119304 -0.043654192 4278190080 0 0 0 0
-0.33660629 0.93824464 -0.043470718 4278190080 0 0 0 0
-0.33396691 0.93529594 -0.043287545 4278190080 0 0 0 0
-0.3316915 0.93334311 -0.043150686 4278190080 0 0 0 0
-0.32977515 0.93238628 -0.043060027 4278190080 0 0 0 0
-0.32751146 0.93043315 -0.042923525 4278190080 0 0 0 0
-0.32525444 0.92847985 -0.042787194 4278190080 0 0 0 0
-0.32335144 0.92752266 -0.042696919 4278190080 0 0 0 0
-0.32110608 0.92556906 -0.042560942 4278190080 0 0 0 0
-0.31921145 0.92461169 -0.042470917 4278190080 0 0 0 0
-0.31732011 0.9236542 -0.042380974 4278190080 0 0 0 0
-0.31543213 0.92269665 -0.042291131 4278190080 0 0 0 0
-0.31354746 0.92173898 -0.042201396 4278190080 0 0 0 0
-0.31166613 0.9207812 -0.042111732 4278190080 0 0 0 0
-0.3101238 0.92081994 -0.042067703 4278190080 0 0 0 0
-0.30824748 0.91986209 -0.041978192 4278190080 0 0 0 0
-0.30637455 0.91890419 -0.041888781 4278190080 0 0 0 0
-0.30450487 0.9179461 -0.04179946 4278190080 0 0 0 0
-0.30296755 0.91798472 -0.041755576 4278190080 0 0 0 0
-0.30110288 0.91702658 -0.041666403 4278190080 0 0 0 0
-0.2992416 0.91606832 -0.041577321 4278190080 0 0 0 0
-0.29738364 0.91511005 -0.041488335 4278190080 0 0 0 0
-0.29585132 0.9151485 -0.041444592 4278190080 0 0 0 0
-0.29399839 0.91419011 -0.041355744 4278190080 0 0 0 0
-0.29246771 0.91422856 -0.04131205 4278190080 0 0 0 0
-0.29093707 0.914267 -0.041268356 4278190080 0 0 0 0
-0.28940639 0.91430545 -0.041224662 4278190080 0 0 0 0
-0.28787574 0.91434389 -0.041180965 4278190080 0 0 0 0
-0.28634506 0.91438234 -0.041137271 4278190080 0 0 0 0
-0.28481442 0.91442078 -0.041093577 4278190080 0 0 0 0
-0.28328374 0.91445923 -0.041049883 4278190080 0 0 0 0
-0.28175309 0.91449767 -0.041006185 4278190080 0 0 0 0
-0.28022242 0.91453612 -0.040962491 4278190080 0 0 0 0
-0.27869177 0.91457456 -0.040918797 4278190080 0 0 0 0
-0.27746332 0.91561037 -0.04091968 4278190080 0 0 0 0
-0.27593097 0.91564882 -0.040875938 4278190080 0 0 0 0
-0.27469757 0.91668475 -0.040876679 4278190080 0 0 0 0
-0.27316356 0.91672331 -0.040832888 4278190080 0 0 0 0
-0.27192515 0.91775942 -0.040833484 4278190080 0 0 0 0
-0.27038947 0.91779798 -0.040789649 4278190080 0 0 0 0
-0.26885381 0.91783655 -0.04074581 4278190080 0 0 0 0
-0.2676087 0.91887283 -0.040746208 4278190080 0 0 0 0
-0.26607138 0.91891146 -0.040702324 4278190080 0 0 0 0
-0.26453403 0.91895002 -0.040658437 4278190080 0 0 0 0
-0.2629967 0.91898865 -0.040614553 4278190080 0 0 0 0
-0.26145935 0.91902727 -0.040570669 4278190080 0 0 0 0
-0.2602042 0.92006379 -0.040570788 4278190080 0 0 0 0
-0.2586652 0.92010248 -0.040526856 4278190080 0 0 0 0
-0.2574051 0.92113906 -0.040526826 4278190080 0 0 0 0
-0.25586441 0.92117774 -0.040482845 4278190080 0 0 0 0
-0.25432372 0.92121643 -0.040438864 4278190080 0 0 0 0
-0.25278306 0.92125517 -0.040394884 4278190080 0 0 0 0
-0.25124237 0.92129385 -0.040350903 4278190080 0 0 0 0
-0.24970169 0.92133254 -0.040306922 4278190080 0 0 0 0
-0.24816102 0.92137122 -0.040262941 4278190080 0 0 0 0
-0.24662034 0.9214099 -0.04021896 4278190080 0 0 0 0
-0.24507967 0.92144865 -0.04017498 4278190080 0 0 0 0
-0.24380283 0.92248571 -0.040174481 4278190080 0 0 0 0
-0.24226049 0.92252445 -0.040130455 4278190080 0 0 0 0
-0.24071814 0.9225632 -0.040086426 4278190080 0 0 0 0
-0.23943464 0.92360044 -0.040085744 4278190080 0 0 0 0
-0.23814783 0.92463773 -0.040084943 4278190080 0 0 0 0
-0.23660213 0.9246766 -0.040040821 4278190080 0 0 0 0
-0.23556413 0.92671257 -0.040083088 4278190080 0 0 0 0
-0.23426726 0.92775011 -0.040082011 4278190080 0 0 0 0
-0.23321757 0.9297865 -0.040123925 4278190080 0 0 0 0
-0.23191237 0.93082428 -0.040122617 4278190080 0 0 0 0
-0.23109816 0.93385971 -0.040207226 4278190080 0 0 0 0
-0.22978294 0.93489772 -0.040205617 4278190080 0 0 0 0
-0.22895207 0.93793356 -0.040289756 4278190080 0 0 0 0
-0.22786899 0.93997073 -0.040330715 4278190080 0 0 0 0
-0.22653875 0.94100916 -0.040328693 4278190080 0 0 0 0
-0.22544399 0.94304663 -0.040369336 4278190080 0 0 0 0
-0.22410539 0.94408524 -0.040367074 4278190080 0 0 0 0
-0.22299896 0.94612294 -0.040407367 4278190080 0 0 0 0
-0.22141822 0.94616264 -0.040362239 4278190080 0 0 0 0
-0.22006962 0.94720161 -0.040359702 4278190080 0 0 0 0
-0.21848722 0.94724137 -0.040314529 4278190080 0 0 0 0
-0.21713361 0.94828027 -0.040311839 4278190080 0 0 0 0
-0.21554953 0.94832009 -0.040266618 4278190080 0 0 0 0
-0.21396545 0.94835985 -0.040221401 4278190080 0 0 0 0
-0.21260518 0.94939905 -0.040218517 4278190080 0 0 0 0
-0.21101941 0.94943887 -0.040173251 4278190080 0 0 0 0
-0.20987459 0.95147759 -0.040212456 4278190080 0 0 0 0
-0.20850429 0.95251697 -0.040209297 4278190080 0 0 0 0
-0.20713067 0.95355648 -0.040206026 4278190080 0 0 0 0
-0.20596914 0.95559561 -0.040244769 4278190080 0 0 0 0
-0.20480092 0.95763493 -0.040283315 4278190080 0 0 0 0
-0.20362604 0.95967436 -0.04032167 4278190080 0 0 0 0
-0.20286538 0.96371347 -0.040443733 4278190080 0 0 0 0
-0.20188257 0.96675313 -0.040523514 4278190080 0 0 0 0
-0.20088975 0.96979296 -0.040603023 4278190080 0 0 0 0
-0.20029779 0.97483283 -0.040765863 4278190080 0 0 0 0
-0.19968913 0.97987306 -0.040928207 4278190080 0 0 0 0
-0.19922346 0.9939546 -0.041418169 4278190080 0 0 0 0
-0.19915433 1.0019963 -0.041703779 4278190080 0 0 0 0
-0.19886139 1.0090386 -0.041947041 4278190080 0 0 0 0
-0.19834967 1.0150814 -0.042148113 4278190080 0 0 0 0
-0.19781791 1.0211246 -0.042348612 4278190080 0 0 0 0
-0.19726613 1.0271685 -0.042548552 4278190080 0 0 0 0
-0.1963135 1.0312123 -0.042665139 4278190080 0 0 0 0
-0.19515876 1.0342561 -0.042740002 4278190080 0 0 0 0
-0.15831834 1.0542763 -0.042371348 4278190080 0 0 0 0
-0.15656066 1.0543206 -0.042321172 4278190080 0 0 0 0
-0.15480301 1.0543647 -0.042270996 4278190080 0 0 0 0
-0.15304533 1.0544088 -0.04222082 4278190080 0 0 0 0
-0.15128765 1.054453 -0.042170644 4278190080 0 0 0 0
-0.14952996 1.0544971 -0.042120468 4278190080 0 0 0 0
-0.14791261 1.0555426 -0.042110249 4278190080 0 0 0 0
-0.14615327 1.0555868 -0.042060029 4278190080 0 0 0 0
-0.14439392 1.0556309 -0.042009804 4278190080 0 0 0 0
-0.14263457 1.0556751 -0.041959584 4278190080 0 0 0 0
-0.14087524 1.0557194 -0.041909359 4278190080 0 0 0 0
-0.13911588 1.0557635 -0.041859135 4278190080 0 0 0 0
-0.13748688 1.0568095 -0.04184857 4278190080 0 0 0 0
-0.13572586 1.0568538 -0.041798297 4278190080 0 0 0 0
-0.13396485 1.056898 -0.041748028 4278190080 0 0 0 0
-0.13220383 1.0569422 -0.041697755 4278190080 0 0 0 0
-0.13044283 1.0569865 -0.041647486 4278190080 0 0 0 0
-0.12868181 1.0570307 -0.041597217 4278190080 0 0 0 0
-0.12692079 1.0570749 -0.041546945 4278190080 0 0 0 0
-0.12515979 1.0571191 -0.041496675 4278190080 0 0 0 0
-0.12339877 1.0571634 -0.041446406 4278190080 0 0 0 0
-0.12163775 1.0572076 -0.041396134 4278190080 0 0 0 0
-0.11987673 1.0572518 -0.041345865 4278190080 0 0 0 0
-0.11811572 1.057296 -0.041295592 4278190080 0 0 0 0
-0.1163547 1.0573403 -0.041245323 4278190080 0 0 0 0
-0.11448507 1.0563822 -0.041156016 4278190080 0 0 0 0
-0.11272573 1.0564264 -0.041105792 4278190080 0 0 0 0
-0.11096638 1.0564705 -0.041055571 4278190080 0 0 0 0
-0.10920703 1.0565147 -0.041005347 4278190080 0 0 0 0
-0.10744769 1.056559 -0.040955123 4278190080 0 0 0 0
-0.10558809 1.0556008 -0.040866088 4278190080 0 0 0 0
-0.1038304 1.055645 -0.040815912 4278190080 0 0 0 0
-0.1019758 1.0546864 -0.040727019 4278190080 0 0 0 0
-0.10021979 1.0547305 -0.040676892 4278190080 0 0 0 0
-0.09837018 1.053772 -0.040588129 4278190080 0 0 0 0
-0.014135068 1.0538777 -0.038111653 4278190080 0 0 0 0
-0.01238407 1.0539217 -0.038061667 4278190080 0 0 0 0
-0.010633072 1.0539657 -0.038011681 4278190080 0 0 0 0
-0.0088905431 1.0550144 -0.037997875 4278190080 0 0 0 0
-0.0071378741 1.0550585 -0.037947845 4278190080 0 0 0 0
-0.0053852051 1.0551025 -0.03789781 4278190080 0 0 0 0
-0.0036290791 1.0541416 -0.037811745 4278190080 0 0 0 0
-0.0018780809 1.0541856 -0.037761759 4278190080 0 0 0 0
-0.00012708269 1.0542296 -0.037711777 4278190080 0 0 0 0
0.0016239174 1.0542736 -0.037661791 4278190080 0 0 0 0
0.0033749137 1.0543175 -0.037611805 4278190080 0 0 0 0
0.0051259138 1.0543615 -0.037561823 4278190080 0 0 0 0
0.0068769138 1.0544055 -0.037511837 4278190080 0 0 0 0
0.0086279083 1.0544494 -0.037461851 4278190080 0 0 0 0
0.010378907 1.0544934 -0.037411869 4278190080 0 0 0 0
0.012129908 1.0545374 -0.037361883 4278190080 0 0 0 0
0.013880907 1.0545814 -0.037311897 4278190080 0 0 0 0
0.015631905 1.0546254 -0.037261914 4278190080 0 0 0 0
0.017382903 1.0546694 -0.037211929 4278190080 0 0 0 0
0.019133897 1.0547134 -0.037161943 4278190080 0 0 0 0
0.020884903 1.0547574 -0.03711196 4278190080 0 0 0 0
0.022635898 1.0548013 -0.037061974 4278190080 0 0 0 0
0.024386896 1.0548453 -0.037011988 4278190080 0 0 0 0
0.026112985 1.0538837 -0.036926765 4278190080 0 0 0 0
0.042857312 1.0362144 -0.035801724 4278190080 0 0 0 0
0.044533316 1.0352515 -0.035717938 4278190080 0 0 0 0
0.046250928 1.0352947 -0.035668906 4278190080 0 0 0 0
0.047921926 1.0343316 -0.035585269 4278190080 0 0 0 0
0.049637869 1.0343747 -0.035536285 4278190080 0 0 0 0
0.051303856 1.0334116 -0.035452787 4278190080 0 0 0 0
0.052966516 1.0324483 -0.035369366 4278190080 0 0 0 0
0.054679122 1.0324912 -0.035320476 4278190080 0 0 0 0
0.056336764 1.0315281 -0.035237215 4278190080 0 0 0 0
0.058047701 1.031571 -0.035188373 4278190080 0 0 0 0
0.059758637 1.0316141 -0.035139531 4278190080 0 0 0 0
0.071525238 1.0288944 -0.034695804 4278190080 0 0 0 0
0.073231176 1.0289373 -0.034647103 4278190080 0 0 0 0
0.074937113 1.0289801 -0.034598406 4278190080 0 0 0 0
0.076643027 1.0290231 -0.034549709 4278190080 0 0 0 0
0.078348964 1.0290658 -0.034501009 4278190080 0 0 0 0
0.080054887 1.0291088 -0.034452312 4278190080 0 0 0 0
0.081760824 1.0291516 -0.034403615 4278190080 0 0 0 0
0.083466746 1.0291944 -0.034354914 4278190080 0 0 0 0
0.085172676 1.0292373 -0.034306217 4278190080 0 0 0 0
0.086878613 1.0292801 -0.03425752 4278190080 0 0 0 0
0.088584535 1.029323 -0.034208823 4278190080 0 0 0 0
0.090290479 1.0293658 -0.034160122 4278190080 0 0 0 0
0.091996402 1.0294086 -0.034111425 4278190080 0 0 0 0
0.093702331 1.0294515 -0.034062728 4278190080 0 0 0 0
0.095408261 1.0294943 -0.034014028 4278190080 0 0 0 0
0.097209208 1.0305446 -0.033998553 4278190080 0 0 0 0
0.098916799 1.0305876 -0.033949807 4278190080 0 0 0 0
0.10062441 1.0306304 -0.033901062 4278190080 0 0 0 0
0.102332 1.0306733 -0.033852316 4278190080 0 0 0 0
0.10403961 1.0307162 -0.033803571 4278190080 0 0 0 0
0.10574721 1.0307591 -0.033754826 4278190080 0 0 0 0
0.10745479 1.030802 -0.03370608 4278190080 0 0 0 0
0.10916239 1.0308448 -0.033657335 4278190080 0 0 0 0
0.11087 1.0308877 -0.033608589 4278190080 0 0 0 0
0.11257759 1.0309306 -0.033559844 4278190080 0 0 0 0
0.11428519 1.0309736 -0.033511095 4278190080 0 0 0 0
0.11610618 1.0320241 -0.033495057 4278190080 0 0 0 0
0.11781546 1.0320672 -0.033446264 4278190080 0 0 0 0
0.11952473 1.0321101 -0.03339747 4278190080 0 0 0 0
0.1211156 1.0311451 -0.033316113 4278190080 0 0 0 0
0.12294327 1.0321959 -0.033299882 4278190080 0 0 0 0
0.12465253 1.0322388 -0.033251088 4278190080 0 0 0 0
0.1263618 1.0322818 -0.033202298 4278190080 0 0 0 0
0.12807107 1.0323247 -0.033153504 4278190080 0 0 0 0
0.12990707 1.0333759 -0.03313705 4278190080 0 0 0 0
0.13161802 1.0334189 -0.033088207 4278190080 0 0 0 0
0.13332896 1.0334618 -0.033039369 4278190080 0 0 0 0
0.13517162 1.034513 -0.033022709 4278190080 0 0 0 0
0.13688424 1.0345559 -0.032973818 4278190080 0 0 0 0
0.13846177 1.0335908 -0.032892846 4278190080 0 0 0 0
0.14030945 1.034642 -0.032876041 4278190080 0 0 0 0
0.14202206 1.034685 -0.032827154 4278190080 0 0 0 0
0.14373466 1.0347281 -0.032778263 4278190080 0 0 0 0
0.14544727 1.0347711 -0.032729376 4278190080 0 0 0 0
0.14715987 1.034814 -0.032680489 4278190080 0 0 0 0
0.1685981 1.0303277 -0.031888768 4278190080 0 0 0 0
0.17030236 1.0303705 -0.031840116 4278190080 0 0 0 0
0.17200662 1.0304133 -0.031791467 4278190080 0 0 0 0
0.17371088 1.0304561 -0.031742815 4278190080 0 0 0 0
0.17541513 1.0304989 -0.031694166 4278190080 0 0 0 0
0.17711942 1.0305417 -0.031645514 4278190080 0 0 0 0
0.17864853 1.0295751 -0.03156592 4278190080 0 0 0 0
0.18035114 1.0296179 -0.031517319 4278190080 0 0 0 0
0.18205371 1.0296607 -0.031468716 4278190080 0 0 0 0
0.18375631 1.0297034 -0.031420112 4278190080 0 0 0 0
0.1854589 1.0297462 -0.031371512 4278190080 0 0 0 0
0.18716149 1.029789 -0.031322908 4278190080 0 0 0 0
0.18886408 1.0298318 -0.031274304 4278190080 0 0 0 0
0.19037983 1.0288649 -0.031195078 4278190080 0 0 0 0
0.19208075 1.0289075 -0.031146523 4278190080 0 0 0 0
0.19378167 1.0289503 -0.031097967 4278190080 0 0 0 0
0.19548261 1.028993 -0.031049412 4278190080 0 0 0 0
0.19737704 1.0300455 -0.031031292 4278190080 0 0 0 0
0.19888444 1.0290785 -0.030952303 4278190080 0 0 0 0
0.20078222 1.0301311 -0.030934084 4278190080 0 0 0 0
0.20248482 1.0301738 -0.030885482 4278190080 0 0 0 0
0.20438758 1.0312265 -0.030867107 4278190080 0 0 0 0
0.20609184 1.0312693 -0.030818459 4278190080 0 0 0 0
0.2077961 1.0313121 -0.030769808 4278190080 0 0 0 0
0.20950034 1.031355 -0.030721158 4278190080 0 0 0 0
0.21120462 1.0313978 -0.030672505 4278190080 0 0 0 0
0.21311742 1.0324508 -0.03065386 4278190080 0 0 0 0
0.21482335 1.0324936 -0.030605163 4278190080 0 0 0 0
0.23847276 1.0320827 -0.029894101 4278190080 0 0 0 0
0.24017704 1.0321255 -0.02984545 4278190080 0 0 0 0
0.24188131 1.0321683 -0.029796798 4278190080 0 0 0 0
0.24382415 1.033222 -0.029777296 4278190080 0 0 0 0
0.2455301 1.0332649 -0.029728597 4278190080 0 0 0 0
0.25064787 1.0333934 -0.029582504 4278190080 0 0 0 0
0.28648645 1.0282636 -0.028343756 4278190080 0 0 0 0
0.28818238 1.0283062 -0.028295342 4278190080 0 0 0 0
0.28987828 1.0283488 -0.028246932 4278190080 0 0 0 0
0.29186121 1.0294037 -0.028226268 4278190080 0 0 0 0
0.29355878 1.0294464 -0.028177809 4278190080 0 0 0 0
0.29525638 1.0294889 -0.028129349 4278190080 0 0 0 0
0.30064443 1.0306292 -0.028011497 4278190080 0 0 0 0
0.33636773 1.0265015 -0.026811991 4278190080 0 0 0 0
0.33805865 1.026544 -0.026763722 4278190080 0 0 0 0
0.34008494 1.0275999 -0.026741821 4278190080 0 0 0 0
0.3417775 1.0276425 -0.026693504 4278190080 0 0 0 0
0.3434701 1.0276849 -0.026645187 4278190080 0 0 0 0
0.34516269 1.0277275 -0.02659687 4278190080 0 0 0 0
0.34685528 1.0277699 -0.026548551 4278190080 0 0 0 0
0.34854782 1.0278125 -0.026500236 4278190080 0 0 0 0
0.35024041 1.027855 -0.026451919 4278190080 0 0 0 0
0.35193297 1.0278975 -0.026403602 4278190080 0 0 0 0
0.35362557 1.02794 -0.026355285 4278190080 0 0 0 0
0.35531813 1.0279825 -0.026306968 4278190080 0 0 0 0
0.35701072 1.028025 -0.026258651 4278190080 0 0 0 0
0.35870329 1.0280676 -0.026210334 4278190080 0 0 0 0
0.36039588 1.02811 -0.026162017 4278190080 0 0 0 0
0.36208844 1.0281526 -0.0261137 4278190080 0 0 0 0
0.36378101 1.028195 -0.026065383 4278190080 0 0 0 0
0.3654736 1.0282376 -0.026017066 4278190080 0 0 0 0
0.36680406 1.0272659 -0.025943145 4278190080 0 0 0 0
0.36849499 1.0273085 -0.025894873 4278190080 0 0 0 0
0.37018591 1.0273509 -0.025846604 4278190080 0 0 0 0
0.37187684 1.0273933 -0.025798336 4278190080 0 0 0 0
0.3735677 1.0274358 -0.025750067 4278190080 0 0 0 0
0.37525856 1.0274783 -0.025701798 4278190080 0 0 0 0
0.37657744 1.0265064 -0.025628207 4278190080 0 0 0 0
0.37826669 1.0265489 -0.025579985 4278190080 0 0 0 0
0.37995589 1.0265913 -0.025531765 4278190080 0 0 0 0
0.38164514 1.0266337 -0.025483543 4278190080 0 0 0 0
0.3833344 1.0266762 -0.025435321 4278190080 0 0 0 0
0.38502359 1.0267186 -0.025387099 4278190080 0 0 0 0
0.38709497 1.0277755 -0.025363913 4278190080 0 0 0 0
0.38878584 1.0278181 -0.025315644 4278190080 0 0 0 0
0.39047676 1.0278605 -0.025267374 4278190080 0 0 0 0
0.39216769 1.027903 -0.025219105 4278190080 0 0 0 0
0.39424738 1.0289602 -0.025195681 4278190080 0 0 0 0
0.39593995 1.0290028 -0.025147364 4278190080 0 0 0 0
0.39763254 1.0290453 -0.025099047 4278190080 0 0 0 0
0.45552102 1.0274842 -0.023338698 4278190080 0 0 0 0
0.45720857 1.0275266 -0.023290524 4278190080 0 0 0 0
0.45889616 1.0275689 -0.023242351 4278190080 0 0 0 0
0.46058375 1.0276114 -0.023194175 4278190080 0 0 0 0
0.4622713 1.0276537 -0.023146002 4278190080 0 0 0 0
0.46441782 1.0287127 -0.023120685 4278190080 0 0 0 0
0.46610701 1.0287552 -0.023072463 4278190080 0 0 0 0
0.4682585 1.0298141 -0.023046989 4278190080 0 0 0 0
0.47041333 1.0308733 -0.023021419 4278190080 0 0 0 0
0.47303706 1.0329491 -0.023018414 4278190080 0 0 0 0
0.47520024 1.0340085 -0.022992607 4278190080 0 0 0 0
0.47736675 1.0350678 -0.022966718 4278190080 0 0 0 0
0.47953656 1.0361274 -0.022940706 4278190080 0 0 0 0
0.48170984 1.037187 -0.022914626 4278190080 0 0 0 0
-0.41016662 1.0361021 -0.050865721 4278190080 0 0 0 0
-0.40803662 1.0351504 -0.05076731 4278190080 0 0 0 0
-0.40590999 1.0341986 -0.050668992 4278190080 0 0 0 0
-0.40339768 1.0322512 -0.050522048 4278190080 0 0 0 0
-0.40011734 1.0283128 -0.050277933 4278190080 0 0 0 0
-0.39723605 1.0253698 -0.050082844 4278190080 0 0 0 0
-0.39282882 1.0184441 -0.049693733 4278190080 0 0 0 0
-0.37543344 0.99073565 -0.048143938 4278190080 0 0 0 0
-0.37189436 0.9857986 -0.047854852 4278190080 0 0 0 0
-0.36762393 0.9788695 -0.047469642 4278190080 0 0 0 0
-0.36412156 0.97393149 -0.047181591 4278190080 0 0 0 0
-0.36026523 0.96799713 -0.046845816 4278190080 0 0 0 0
-0.35716686 0.96405423 -0.046606906 4278190080 0 0 0 0
-0.35334724 0.95811903 -0.046272181 4278190080 0 0 0 0
-0.34954762 0.95218337 -0.045938015 4278190080 0 0 0 0
-0.34649602 0.94823921 -0.045700464 4278190080 0 0 0 0
-0.34345773 0.94429481 -0.045463253 4278190080 0 0 0 0
-0.34043285 0.94035 -0.045226466 4278190080 0 0 0 0
-0.33813912 0.93839717 -0.045085754 4278190080 0 0 0 0
-0.33585221 0.93644428 -0.04494524 4278190080 0 0 0 0
-0.33321628 0.93349487 -0.044757154 4278190080 0 0 0 0
-0.33129829 0.93253791 -0.044664782 4278190080 0 0 0 0
-0.32903132 0.93058443 -0.044524826 4278190080 0 0 0 0
-0.32677108 0.92863083 -0.044385079 4278190080 0 0 0 0
-0.32486641 0.92767346 -0.044293102 4278190080 0 0 0 0
-0.32227057 0.92472303 -0.044106156 4278190080 0 0 0 0
-0.32037595 0.92376542 -0.044014465 4278190080 0 0 0 0
-0.31848466 0.92280781 -0.043922842 4278190080 0 0 0 0
-0.31659672 0.92185003 -0.043831341 4278190080 0 0 0 0
-0.31471208 0.92089218 -0.043739926 4278190080 0 0 0 0
-0.31283081 0.91993415 -0.043648604 4278190080 0 0 0 0
-0.31095284 0.91897619 -0.043557398 4278190080 0 0 0 0
-0.30907828 0.9180181 -0.043466263 4278190080 0 0 0 0
-0.30754095 0.91805673 -0.043422379 4278190080 0 0 0 0
-0.3060036 0.91809535 -0.043378495 4278190080 0 0 0 0
-0.30413565 0.91713703 -0.043287557 4278190080 0 0 0 0
-0.3019422 0.9151817 -0.043149702 4278190080 0 0 0 0
-0.30008259 0.91422325 -0.043058995 4278190080 0 0 0 0
-0.29855195 0.9142617 -0.043015301 4278190080 0 0 0 0
-0.29702127 0.91430014 -0.042971607 4278190080 0 0 0 0
-0.2951684 0.91334146 -0.042881109 4278190080 0 0 0 0
-0.29363942 0.91337991 -0.04283746 4278190080 0 0 0 0
-0.29179147 0.91242111 -0.042747088 4278190080 0 0 0 0
-0.29026416 0.91245949 -0.042703491 4278190080 0 0 0 0
-0.28873685 0.91249782 -0.04265989 4278190080 0 0 0 0
-0.28689563 0.9115389 -0.042569727 4278190080 0 0 0 0
-0.28568217 0.91257459 -0.042572692 4278190080 0 0 0 0
-0.28415486 0.91261292 -0.042529091 4278190080 0 0 0 0
-0.28262752 0.9126513 -0.04248549 4278190080 0 0 0 0
-0.27253067 0.91491526 -0.04227249 4278190080 0 0 0 0
-0.271 0.91495371 -0.042228796 4278190080 0 0 0 0
-0.2697632 0.91598994 -0.042231109 4278190080 0 0 0 0
-0.26823086 0.91602844 -0.042187367 4278190080 0 0 0 0
-0.26669854 0.91606694 -0.042143624 4278190080 0 0 0 0
-0.26516619 0.91610539 -0.042099882 4278190080 0 0 0 0
-0.26392105 0.91714185 -0.042101942 4278190080 0 0 0 0
-0.26238707 0.91718042 -0.042058151 4278190080 0 0 0 0
-0.26085305 0.91721892 -0.04201436 4278190080 0 0 0 0
-0.25931901 0.91725743 -0.04197057 4278190080 0 0 0 0
-0.25778502 0.91729599 -0.041926779 4278190080 0 0 0 0
-0.25652987 0.9183327 -0.041928586 4278190080 0 0 0 0
-0.2552714 0.91936952 -0.041930273 4278190080 0 0 0 0
-0.25373402 0.91940814 -0.041886389 4278190080 0 0 0 0
-0.2521967 0.91944677 -0.041842502 4278190080 0 0 0 0
-0.25065935 0.91948539 -0.041798618 4278190080 0 0 0 0
-0.24912202 0.91952401 -0.04175473 4278190080 0 0 0 0
-0.24758469 0.91956258 -0.041710846 4278190080 0 0 0 0
-0.24604735 0.9196012 -0.041666962 4278190080 0 0 0 0
-0.24450999 0.91963983 -0.041623075 4278190080 0 0 0 0
-0.24297267 0.91967845 -0.041579191 4278190080 0 0 0 0
-0.24143533 0.91971707 -0.041535303 4278190080 0 0 0 0
-0.239898 0.91975564 -0.041491419 4278190080 0 0 0 0
-0.23861945 0.92079294 -0.04149254 4278190080 0 0 0 0
-0.23733757 0.9218303 -0.041493546 4278190080 0 0 0 0
-0.23630784 0.92386657 -0.041539386 4278190080 0 0 0 0
-0.23501763 0.92490423 -0.041540161 4278190080 0 0 0 0
-0.23372404 0.92594182 -0.041540869 4278190080 0 0 0 0
-0.23242716 0.9269796 -0.041541453 4278190080 0 0 0 0
-0.23137572 0.92901641 -0.041586664 4278190080 0 0 0 0
-0.23031761 0.9310534 -0.041631684 4278190080 0 0 0 0
-0.2292528 0.93309051 -0.041676514 4278190080 0 0 0 0
-0.22818133 0.93512785 -0.041721169 4278190080 0 0 0 0
-0.22710319 0.9371652 -0.041765615 4278190080 0 0 0 0
-0.22577792 0.93820375 -0.041765399 4278190080 0 0 0 0
-0.22468808 0.94024152 -0.041809507 4278190080 0 0 0 0
-0.22335447 0.94128019 -0.041809071 4278190080 0 0 0 0
-0.22225296 0.94331825 -0.041852862 4278190080 0 0 0 0
-0.22091098 0.9443571 -0.041852158 4278190080 0 0 0 0
-0.21956566 0.94539613 -0.041851372 4278190080 0 0 0 0
-0.2179866 0.94543576 -0.041806296 4278190080 0 0 0 0
-0.21663629 0.94647485 -0.041805349 4278190080 0 0 0 0
-0.21505554 0.94651455 -0.041760225 4278190080 0 0 0 0
-0.21347481 0.94655424 -0.0417151 4278190080 0 0 0 0
-0.21189408 0.94659394 -0.041669976 4278190080 0 0 0 0
-0.21031334 0.94663364 -0.041624852 4278190080 0 0 0 0
-0.20895302 0.94767308 -0.04162363 4278190080 0 0 0 0
-0.20758936 0.94871247 -0.041622326 4278190080 0 0 0 0
-0.20643944 0.95075172 -0.041664738 4278190080 0 0 0 0
-0.20506743 0.95179135 -0.041663192 4278190080 0 0 0 0
-0.20390579 0.95383096 -0.041705243 4278190080 0 0 0 0
-0.20231338 0.95387095 -0.041659787 4278190080 0 0 0 0
-0.20156257 0.9579106 -0.041788828 4278190080 0 0 0 0
-0.20058966 0.96095055 -0.041873895 4278190080 0 0 0 0
-0.19939966 0.96299088 -0.041915141 4278190080 0 0 0 0
-0.19861378 0.96703136 -0.042043176 4278190080 0 0 0 0
-0.19781455 0.9710722 -0.042170819 4278190080 0 0 0 0
-0.19740607 0.97711366 -0.042384852 4278190080 0 0 0 0
-0.1962575 0.99624109 -0.043066751 4278190080 0 0 0 0
-0.19615796 1.0042851 -0.043364815 4278190080 0 0 0 0
-0.19583802 1.0113294 -0.043618996 4278190080 0 0 0 0
-0.19511066 1.0163738 -0.043786287 4278190080 0 0 0 0
-0.19474731 1.0234191 -0.044039227 4278190080 0 0 0 0
-0.19398321 1.0284642 -0.044205498 4278190080 0 0 0 0
-0.1930154 1.0325094 -0.044328313 4278190080 0 0 0 0
-0.19203423 1.0365548 -0.044450779 4278190080 0 0 0 0
-0.15827419 1.0544909 -0.044126496 4278190080 0 0 0 0
-0.15651652 1.0545352 -0.04407632 4278190080 0 0 0 0
-0.15475886 1.0545793 -0.044026144 4278190080 0 0 0 0
-0.15300117 1.0546234 -0.043975968 4278190080 0 0 0 0
-0.15124349 1.0546676 -0.043925792 4278190080 0 0 0 0
-0.14948581 1.0547117 -0.043875616 4278190080 0 0 0 0
-0.14786842 1.0557575 -0.043867067 4278190080 0 0 0 0
-0.14610907 1.0558017 -0.043816846 4278190080 0 0 0 0
-0.14434974 1.0558459 -0.043766622 4278190080 0 0 0 0
-0.14259039 1.0558901 -0.043716401 4278190080 0 0 0 0
-0.14083105 1.0559343 -0.043666176 4278190080 0 0 0 0
-0.1390717 1.0559784 -0.043615952 4278190080 0 0 0 0
-0.13744265 1.0570246 -0.043607056 4278190080 0 0 0 0
-0.13568163 1.0570688 -0.043556783 4278190080 0 0 0 0
-0.13392062 1.0571131 -0.043506514 4278190080 0 0 0 0
-0.13215961 1.0571573 -0.043456241 4278190080 0 0 0 0
-0.1303986 1.0572015 -0.043405972 4278190080 0 0 0 0
-0.12863757 1.0572457 -0.043355703 4278190080 0 0 0 0
-0.12687656 1.05729 -0.043305431 4278190080 0 0 0 0
-0.12511554 1.0573342 -0.043255161 4278190080 0 0 0 0
-0.12335454 1.0573784 -0.043204892 4278190080 0 0 0 0
-0.12159353 1.0574226 -0.04315462 4278190080 0 0 0 0
-0.11983251 1.0574669 -0.043104351 4278190080 0 0 0 0
-0.1180715 1.0575111 -0.043054078 4278190080 0 0 0 0
-0.11620023 1.0565529 -0.042963058 4278190080 0 0 0 0
-0.11444088 1.0565971 -0.042912833 4278190080 0 0 0 0
-0.11268155 1.0566413 -0.042862609 4278190080 0 0 0 0
-0.1109222 1.0566854 -0.042812388 4278190080 0 0 0 0
-0.10916284 1.0567297 -0.042762164 4278190080 0 0 0 0
-0.1074035 1.0567739 -0.04271194 4278190080 0 0 0 0
-0.10554394 1.0558153 -0.042621236 4278190080 0 0 0 0
-0.10378626 1.0558596 -0.04257106 4278190080 0 0 0 0
-0.10202859 1.0559037 -0.042520888 4278190080 0 0 0 0
-0.10017569 1.054945 -0.042430386 4278190080 0 0 0 0
-0.098326117 1.0539862 -0.042339969 4278190080 0 0 0 0
-0.096571773 1.0540302 -0.04228989 4278190080 0 0 0 0
-0.014091089 1.0540916 -0.039860155 4278190080 0 0 0 0
-0.012340091 1.0541356 -0.039810169 4278190080 0 0 0 0
-0.010589093 1.0541795 -0.039760184 4278190080 0 0 0 0
-0.0088465214 1.0552285 -0.039748047 4278190080 0 0 0 0
-0.0070938524 1.0552726 -0.039698016 4278190080 0 0 0 0
-0.0053411834 1.0553166 -0.039647982 4278190080 0 0 0 0
-0.0035885181 1.0553606 -0.039597951 4278190080 0 0 0 0
-0.001835851 1.0554045 -0.039547917 4278190080 0 0 0 0
-8.3182007e-05 1.0554487 -0.039497886 4278190080 0 0 0 0
0.001669487 1.0554926 -0.039447851 4278190080 0 0 0 0
0.0034188926 1.0545313 -0.039360307 4278190080 0 0 0 0
0.0051698927 1.0545753 -0.039310325 4278190080 0 0 0 0
0.0069208927 1.0546193 -0.039260339 4278190080 0 0 0 0
0.0086718872 1.0546633 -0.039210353 4278190080 0 0 0 0
0.010432823 1.0557127 -0.039197691 4278190080 0 0 0 0
0.012185493 1.0557568 -0.03914766 4278190080 0 0 0 0
0.013938161 1.0558008 -0.039097626 4278190080 0 0 0 0
0.015690828 1.0558448 -0.039047595 4278190080 0 0 0 0
0.017443495 1.0558888 -0.038997561 4278190080 0 0 0 0
0.019196162 1.0559329 -0.03894753 4278190080 0 0 0 0
0.020928882 1.0549712 -0.038860463 4278190080 0 0 0 0
0.022679877 1.0550152 -0.038810477 4278190080 0 0 0 0
0.024430875 1.0550592 -0.038760491 4278190080 0 0 0 0
0.026156921 1.0540973 -0.038673583 4278190080 0 0 0 0
0.041181207 1.0363812 -0.037567627 4278190080 0 0 0 0
0.042900495 1.0364244 -0.037518546 4278190080 0 0 0 0
0.044576459 1.0354612 -0.037433092 4278190080 0 0 0 0
0.046249073 1.034498 -0.037347738 4278190080 0 0 0 0
0.047965024 1.0345411 -0.037298754 4278190080 0 0 0 0
0.049632639 1.0335779 -0.037213538 4278190080 0 0 0 0
0.051346913 1.033621 -0.037164602 4278190080 0 0 0 0
0.053009532 1.0326575 -0.037079528 4278190080 0 0 0 0
0.054668806 1.0316941 -0.036994532 4278190080 0 0 0 0
0.058090672 1.03178 -0.036896851 4278190080 0 0 0 0
0.071638107 1.0301098 -0.036434896 4278190080 0 0 0 0
0.073274024 1.0291457 -0.036350589 4278190080 0 0 0 0
0.074979961 1.0291885 -0.036301892 4278190080 0 0 0 0
0.076685876 1.0292314 -0.036253195 4278190080 0 0 0 0
0.078391813 1.0292742 -0.036204495 4278190080 0 0 0 0
0.080097735 1.0293171 -0.036155798 4278190080 0 0 0 0
0.081803672 1.0293599 -0.036107101 4278190080 0 0 0 0
0.083509594 1.0294027 -0.0360584 4278190080 0 0 0 0
0.085215524 1.0294456 -0.036009703 4278190080 0 0 0 0
0.086921461 1.0294884 -0.035961006 4278190080 0 0 0 0
0.088627383 1.0295314 -0.035912309 4278190080 0 0 0 0
0.090333328 1.0295742 -0.035863608 4278190080 0 0 0 0
0.092129305 1.0306245 -0.035849944 4278190080 0 0 0 0
0.093836904 1.0306673 -0.035801198 4278190080 0 0 0 0
0.095544502 1.0307102 -0.035752453 4278190080 0 0 0 0
0.097252101 1.0307531 -0.035703707 4278190080 0 0 0 0
0.098959684 1.0307961 -0.035654962 4278190080 0 0 0 0
0.10076569 1.0318465 -0.035641022 4278190080 0 0 0 0
0.10247499 1.0318894 -0.035592228 4278190080 0 0 0 0
0.10408249 1.0309247 -0.035508726 4278190080 0 0 0 0
0.10579009 1.0309676 -0.03545998 4278190080 0 0 0 0
0.10749768 1.0310105 -0.035411235 4278190080 0 0 0 0
0.10920528 1.0310533 -0.03536249 4278190080 0 0 0 0
0.11091289 1.0310962 -0.035313744 4278190080 0 0 0 0
0.11262047 1.0311391 -0.035264999 4278190080 0 0 0 0
0.11432807 1.0311821 -0.03521625 4278190080 0 0 0 0
0.11614911 1.0322329 -0.035201881 4278190080 0 0 0 0
0.11785839 1.0322759 -0.035153087 4278190080 0 0 0 0
0.11956766 1.0323188 -0.035104293 4278190080 0 0 0 0
0.12127692 1.0323617 -0.0350555 4278190080 0 0 0 0
